X	Y	Z
0.658225116	-2.793783752	-0.291096556
0.680560612	-2.8926561	-0.411555682
0.630559064	-2.681388739	-0.485549736
1.954125738	-16.11846584	4.962753208
1.915787829	-11.98271736	3.565972077
0.753441277	-3.787967045	1.093539595
0.741130896	-3.112018555	0.87288152
0.739396861	-3.731994307	0.923436878
0.739137626	-3.119103914	0.745350009
0.742099206	-3.752848408	0.778866579
0.722541837	-3.05834752	0.608969708
0.724364157	-3.668207213	0.61939697
0.722163527	-3.067031179	0.491446757
0.710059953	-3.605702423	0.470902669
0.68967833	-2.935956384	0.357592734
0.671436372	-3.416175307	0.317702219
0.686892154	-2.930527877	0.24614098
0.66856465	-3.407850036	0.189904495
0.680347551	-2.909461889	0.135054906
0.650354216	-3.322392965	0.061161915
0.666601212	-2.852023565	0.025406666
0.634507476	-3.248053051	-0.060424482
0.655775738	-2.813461003	-0.080592697
0.637913966	-3.273384471	-0.183358978
0.647629639	-2.782685646	-0.184406948
0.64193303	-3.304142781	-0.308159302
0.666764635	-2.869439805	-0.29876496
0.665413832	-2.867712983	-0.407714491
0.621662196	-2.680432607	-0.485028913
1.902534296	-16.10634002	4.957199484
1.895952502	-12.09659429	3.598113048
0.816478507	-4.171741681	1.203601835
0.744375861	-3.168749155	0.888149068
0.749512489	-3.844889387	0.950797972
0.728899825	-3.118511752	0.744670577
0.728710758	-3.745488889	0.776871494
0.724517875	-3.109312147	0.618672151
0.72834741	-3.748856341	0.632634744
0.716326633	-3.084631416	0.493912424
0.722388586	-3.728612913	0.486662943
0.69232219	-2.98836449	0.363715473
0.683261619	-3.533593879	0.328425572
0.687774824	-2.975348389	0.249727152
0.670027189	-3.471651293	0.193344398
0.67613231	-2.931977622	0.136003142
0.641481645	-3.331245011	0.061288351
0.662564757	-2.874517785	0.025588823
0.645483348	-3.358971787	-0.062450801
0.653634859	-2.843711766	-0.081401413
0.642155195	-3.349854429	-0.187531227
0.653822194	-2.8488533	-0.188658026
0.634783796	-3.321746968	-0.309618038
0.670401814	-2.925778883	-0.304415362
0.672519866	-2.939263519	-0.417591844
0.617607328	-2.70056786	-0.488327255
1.85562496	-16.13395325	4.963922413
1.887088574	-12.28632685	3.65280937
0.813680998	-4.226192213	1.218585607
0.746190925	-3.220829533	0.90210043
0.799021329	-4.16689345	1.029814954
0.737705957	-3.200460013	0.763695008
0.732872087	-3.829513709	0.793829432
0.71893266	-3.128742737	0.622096557
0.726657343	-3.802431306	0.641296491
0.71634335	-3.128228982	0.50053903
0.715773518	-3.75614495	0.489967543
0.689785467	-3.019517517	0.367247852
0.689907015	-3.627636174	0.336967901
0.685952532	-3.009512248	0.252416753
0.6783667	-3.573751588	0.198913767
0.675772135	-2.972028509	0.137764131
0.637956181	-3.368562998	0.06193863
0.653299509	-2.874587014	0.025571475
0.630719042	-3.337357881	-0.062012678
0.65264013	-2.879824711	-0.082377446
0.629100318	-3.337090704	-0.18670776
0.657192072	-2.904378368	-0.192200598
0.663395583	-2.936555872	-0.305323469
0.665024924	-2.948076761	-0.418552134
0.614301223	-2.724546108	-0.492319991
1.315290407	-11.75350775	3.614935309
1.868227842	-12.41729344	3.690025317
0.796057092	-4.204088827	1.211502428
0.753064703	-3.29646294	0.922632622
1.319016829	-11.75154671	3.119974078
0.803161339	-4.259090768	1.051986811
0.735007034	-3.234051411	0.771168894
0.791256381	-4.204421998	0.871037773
0.730371735	-3.223808442	0.640550156
0.742319582	-3.95008022	0.665810869
0.724367783	-3.208479519	0.513021674
0.737129564	-3.933809348	0.512845416
0.687500354	-3.052620504	0.371015701
0.684449116	-3.660081549	0.339785055
0.680430835	-3.028133778	0.253802322
0.674517014	-3.009180409	0.139389669
0.651691621	-2.908778179	0.025857724
0.628696679	-3.383512507	-0.062834156
0.656878411	-2.940347372	-0.084050653
0.625773954	-3.376312436	-0.188793878
0.646105928	-2.896640917	-0.191556495
0.659140831	-2.959941567	-0.307543264
0.64436702	-2.897888968	-0.411144112
0.607435179	-2.733147475	-0.493535152
1.283983128	-11.80122044	3.628381165
1.895984341	-12.87003394	3.82281898
2.129682537	-11.43902441	3.294512746
0.749730771	-3.328874772	0.93105607
1.285684839	-11.78052951	3.126606883
0.7915081	-4.26917903	1.053873892
0.732534735	-3.269556981	0.779095716
0.780314706	-4.217428457	0.873232296
0.720263801	-3.225075907	0.640359899
0.784684364	-4.247260675	0.715493367
0.721818483	-3.243478379	0.518261338
0.76351143	-4.144804134	0.540044624
0.694703115	-3.129362374	0.380082103
0.691042103	-3.759129583	0.34878178
0.682129117	-3.079834637	0.257959001
0.673040173	-3.046352043	0.141015207
0.650095664	-2.943962782	0.026152646
0.644001467	-3.526074981	-0.065444639
0.653228201	-2.966754428	-0.084747819
0.634560346	-3.483325109	-0.194667945
0.639787272	-2.910305531	-0.192329419
0.656881476	-2.993046574	-0.310772049
0.644590956	-2.9414585	-0.417043095
1.247570381	-11.80320197	3.627796562
1.879903968	-13.03817361	3.871030555
2.09440501	-11.44455832	3.294240236
0.748504821	-3.371656757	0.94237511
1.250352307	-11.79211102	3.128647747
0.779277783	-4.276367563	1.055053231
0.734682098	-3.326952865	0.792231627
0.75755428	-4.165813873	0.862060061
0.724927926	-3.293426655	0.653486747
0.766715075	-4.222469176	0.710917341
0.71419266	-3.25629399	0.519956495
0.748317945	-4.13346305	0.538265247
0.692315139	-3.164462469	0.384085449
0.682869904	-3.779852058	0.350508408
0.68585438	-3.142285256	0.263012224
0.69009395	-3.827475182	0.21267338
0.67261667	-3.089399212	0.142911662
0.652768209	-3.629159719	0.066616992
0.654881168	-3.009454626	0.026716467
0.636183125	-3.54476394	-0.065754978
0.654508913	-3.016611805	-0.08611427
0.631278145	-2.914205182	-0.192458239
0.657158954	-3.038806543	-0.315312552
0.636818091	-2.949231565	-0.417866205
1.209888792	-11.79270411	3.623412045
1.842038649	-13.05908066	3.875541674
2.073078077	-11.52763586	3.316307305
0.739394306	-3.379591858	0.943954513
1.217138863	-11.82474624	3.136300983
0.759645587	-4.242388281	1.046090121
0.737519678	-3.38915089	0.806499965
0.73105213	-3.37047078	0.668325742
0.715289528	-4.009191041	0.674636053
0.71421739	-3.304826067	0.52735361
0.737370224	-4.145505055	0.539536256
0.685742322	-3.181132747	0.385851624
0.694243509	-3.91136021	0.362504051
0.684173566	-3.181401793	0.26610937
0.686707808	-3.87676773	0.215294255
0.680735115	-3.173496284	0.146704575
0.646328444	-3.657729006	0.067104699
0.649418486	-3.029048935	0.026872603
0.635547274	-3.60479321	-0.066832033
0.647549463	-3.029358326	-0.086421025
0.65170171	-3.053736578	-0.201540109
0.650527896	-3.053458075	-0.31662427
0.626942555	-2.947295922	-0.417317455
1.170673714	-11.76590835	3.614058405
1.799867799	-13.04946385	3.871030558
2.064652688	-11.68648894	3.360168693
0.737967421	-3.423339475	0.955536769
1.177493504	-11.79475027	3.127372207
0.723851416	-3.376159713	0.802876242
0.721528855	-3.376537859	0.669086714
0.721975166	-3.391078041	0.540760901
0.681755388	-3.210420315	0.389148477
0.68060662	-3.212736769	0.268554472
0.673612798	-3.871970449	0.214912041
0.674300186	-3.191208276	0.147427042
0.645873888	-3.721756817	0.068242678
0.646734396	-3.062335334	0.027150176
0.64307792	-3.714110235	-0.068821838
0.636192972	-3.021549062	-0.086142157
0.642535145	-3.056698183	-0.201604512
0.64401747	-3.069071092	-0.31803687
0.615460007	-2.937571559	-0.415671234
1.135304939	-11.77705968	3.616396814
1.763669399	-13.08344941	3.879488932
2.119257307	-12.21417499	3.51000595
0.752311255	-3.542604886	0.988177762
1.143350385	-11.81948034	3.13298458
0.724157216	-3.428873273	0.814879782
0.717637078	-3.409477497	0.675174494
0.714001481	-3.404881458	0.542610195
0.680847863	-3.255265114	0.394329282
0.682757242	-3.272373885	0.273363196
0.671222782	-3.225536799	0.148917114
0.659306799	-3.869594441	0.070916029
0.646091994	-3.106402496	0.027523165
0.647932975	-3.811677953	-0.070592587
0.647621127	-3.123323365	-0.088986603
0.631131486	-3.048882979	-0.200960409
0.645269232	-3.122671047	-0.32338457
0.614050336	-2.97631024	-0.420884285
1.097480104	-11.76239639	3.610842858
1.719889112	-13.06121245	3.871312604
2.040572339	-11.9787484	3.440536019
0.751314449	-3.592111069	1.00133942
1.107083326	-11.82293244	3.13298458
0.747352316	-3.593191915	0.853381581
0.728095826	-3.512600098	0.69515004
0.716340338	-3.468984692	0.552473034
0.698701546	-3.392534246	0.410695883
0.68514991	-3.334982834	0.278416418
0.668542631	-3.262812127	0.150542651
0.644783978	-3.148535081	0.027878806
0.638374732	-3.82646837	-0.070829903
0.642034827	-3.144883834	-0.089544339
0.633931129	-3.11045206	-0.204889443
0.654131777	-3.215304121	-0.332768278
0.599001142	-2.949058412	-0.416768705
1.058810797	-11.73713435	3.602073821
1.679687546	-13.06547658	3.871030557
1.994927169	-11.93180829	3.425279853
0.748658647	-3.635029886	1.012658346
0.741796624	-3.622185756	0.859723039
0.724186736	-3.548484059	0.701808592
0.721441976	-3.54862584	0.564801598
0.683554205	-3.371304081	0.407869997
0.678471449	-3.354653261	0.279883497
0.667812729	-3.310872985	0.152664875
0.645199533	-3.200490703	0.02832119
0.644003043	-3.204659892	-0.091189658
0.62732973	-3.127058923	-0.205855605
0.65305505	-3.261194703	-0.337308781
0.595970665	-2.980993222	-0.421021465
1.021800766	-11.72889483	3.598566206
1.640550573	-13.07818397	3.873286234
1.970927652	-12.01478095	3.447346686
0.746513336	-3.681747808	1.025030362
0.739149853	-3.666455947	0.86968822
0.730312244	-3.635389761	0.718550046
0.716561663	-3.580856674	0.56957891
0.693031075	-3.472717092	0.419880035
0.67965637	-3.414391072	0.284692191
0.667377673	-3.361899246	0.154922565
0.648026676	-3.266209943	0.028885011
0.638822732	-3.230155365	-0.091858943
0.64208674	-3.252325959	-0.213971313
0.651510462	-3.306132272	-0.341748373
0.599250927	-3.045982086	-0.429938499
0.98629271	-11.73769215	3.600320013
1.600070158	-13.08029835	3.872440325
1.938337177	-12.04736948	3.454974886
0.759381634	-3.8051184	1.058724269
0.742114595	-3.740360769	0.88667435
0.72829496	-3.683841812	0.727681716
0.715881071	-3.635387926	0.577900674
0.693472276	-3.531344163	0.426709267
0.67262632	-3.434065689	0.28615927
0.665678199	-3.40805123	0.156954487
0.642409663	-3.290755681	0.029084517
0.644756578	-3.313540254	-0.094173541
0.643141927	-3.311098243	-0.217707109
0.950431611	-11.7425693	3.600904616
1.559364962	-13.08038274	3.871030558
1.909013494	-12.10173172	3.468868968
0.754768453	-3.843403028	1.068727121
0.739220588	-3.786594649	0.897092469
0.722425695	-3.714005419	0.733198782
0.722389602	-3.728748683	0.592386746
0.689227748	-3.567580576	0.430830362
0.669442053	-3.474281447	0.289337897
0.665021243	-3.46109132	0.159302478
0.639853977	-3.331991866	0.029431485
0.644735118	-3.36851943	-0.095679422
0.639347832	-3.346382434	-0.219897073
0.579808896	-3.045709424	-0.42938975
0.913807621	-11.73780234	3.598566206
1.518563605	-13.079387	3.869338977
1.892752261	-12.24255638	3.507554054
0.816538895	-4.226481596	1.174546825
0.74780604	-3.894063638	0.92200542
0.725787132	-3.793343979	0.74841829
0.721303754	-3.785300411	0.601016724
0.703304644	-3.701382824	0.446725968
0.676038102	-3.567388649	0.296917759
0.654028632	-3.461152132	0.159212162
0.629442965	-3.332956724	0.02942281
0.638280553	-3.391111068	-0.096265045
0.62852548	-3.345385947	-0.219703835
0.878291369	-11.74722644	3.600612315
1.421550217	-12.58060705	3.720474944
1.874203846	-12.37387997	3.543514965
0.804648926	-4.234653532	1.176126229
0.802735203	-4.250465623	1.005803533
0.771146858	-4.098502535	0.808154782
0.737164842	-3.934139619	0.624286855
0.7335281	-3.926085918	0.473571929
0.665090378	-3.569445894	0.296917759
0.667858518	-3.594753531	0.165262778
0.622135468	-3.350602496	0.029561598
0.640605895	-3.461858208	-0.09821712
0.622609148	-3.370850301	-0.221249682
0.843067757	-11.76131154	3.604119927
1.295228781	-11.78667006	3.484491573
1.935618009	-13.04961275	3.735306738
0.785274834	-4.202962743	1.166649923
0.78933558	-4.250992991	1.005350538
0.781426288	-4.224415312	0.832505962
0.783263565	-4.252187532	0.674371566
0.745696316	-4.06017321	0.489467563
0.646056116	-3.527353216	0.293250078
0.653955454	-3.581062033	0.164540311
0.639680864	-3.504971028	0.030906094
0.649121198	-3.569039241	-0.101201003
0.80619522	-11.75239441	3.600612315
1.257227987	-11.77341602	3.479416596
1.906633462	-13.13166458	3.757101294
2.105562711	-11.46413904	3.180384384
0.755654181	-4.14032853	0.978625723
0.764072062	-4.202644879	0.827749867
0.760005858	-4.198179857	0.665433372
0.730061427	-4.044851632	0.487348143
0.665598112	-3.698035245	0.307268702
0.683901098	-3.811171132	0.175015991
0.640221726	-3.569909663	0.031461241
0.641333811	-3.588726335	-0.101702963
0.771198473	-11.77103505	3.605581435
1.220211171	-11.7686291	3.476879108
1.867013735	-13.14221507	3.75846338
2.071923519	-11.47908942	3.182753549
0.777647215	-11.80943248	3.122525157
0.733799518	-4.125586919	0.653567159
0.721809832	-4.070538954	0.490174056
0.685313448	-3.875739133	0.321857863
0.678622195	-3.84965221	0.176686679
0.648350865	-3.680184742	0.032415403
0.650369309	-3.704885651	-0.104937827
0.734605066	-11.76570929	3.603243023
1.184483862	-11.77613543	3.478006827
1.827744437	-13.15550586	3.760643002
2.074597147	-11.69912213	3.241981016
0.740867568	-11.8030782	3.120229188
0.674306393	-3.895027119	0.178673437
0.644046542	-3.722554832	0.032771042
0.646301683	-3.749221807	-0.106136953
0.698164927	-11.76218065	3.601489219
1.14695329	-11.76538978	3.473777756
1.786339451	-13.15342381	3.758463381
2.058393269	-11.81853209	3.273305641
0.705574547	-11.82073881	3.124310914
0.63814869	-3.757045864	0.033057289
0.65030751	-3.842847864	-0.108730425
0.662075761	-11.76426668	3.601489217
1.110311199	-11.7631227	3.472086178
1.745217651	-13.1531198	3.756828784
2.190269497	-12.808052	3.545489059
0.669906872	-11.83346646	3.127117099
0.642608885	-3.869477309	-0.109427591
0.625065898	-11.74905346	3.596227797
1.072908798	-11.75214133	3.467857107
1.70448525	-13.15554942	3.756011485
1.999411837	-11.91181103	3.29568051
0.632875521	-11.82194831	3.123545588
0.570010622	-11.37173049	3.480182561
1.038281831	-11.77162548	3.472650038
1.66411661	-13.16071647	3.756011484
1.968971721	-11.95501309	3.305946575
0.526876125	-10.44194035	2.758485499
0.49076169	-9.669199998	2.170669716
0.535254788	-11.37629153	3.481059465
1.001673844	-11.76901912	3.470958456
1.623378949	-13.16289511	3.755194185
1.991827441	-12.32957063	3.407818064
0.493556855	-10.41646504	2.75134248
0.426054836	-8.935760413	2.005714578
0.499972172	-11.36928109	3.478428752
0.968072133	-11.80263656	3.479980456
1.581954571	-13.15921571	3.752742288
1.95278407	-12.32800037	3.405712113
0.50054523	-11.29695785	2.983491124
0.463174287	-11.32394097	3.464105758
0.931178091	-11.79694299	3.477442968
1.540903719	-13.15827376	3.751107692
1.918357295	-12.35585994	3.411766515
0.470027235	-11.39891428	3.010022346
0.4300214	-11.36735684	3.476967247
0.894981232	-11.7997442	3.477442968
1.497476111	-13.13617207	3.743479727
1.97242467	-12.96637104	3.57865642
0.435090534	-11.40126842	3.010277452
0.394746192	-11.35715373	3.473459632
0.856408575	-11.76989962	3.467857109
1.307431958	-11.79038896	3.358806606
1.956801905	-13.13457601	3.623405922
0.400686305	-11.41897712	3.014614287
0.360355385	-11.37264873	3.47784415
0.821095316	-11.78395689	3.471240269
1.275480932	-11.83356707	3.36997628
1.916774932	-13.14242676	3.623932586
0.365558672	-11.41725322	3.013848962
0.325517586	-11.37561283	3.478428753
0.784556264	-11.78067675	3.469548689
1.232959168	-11.7780937	3.353085516
1.876581741	-13.14920025	3.6241958
0.330613235	-11.42122125	3.014614288
0.290567322	-11.37464629	3.477844152
0.749626269	-11.80217824	3.475187526
1.19565176	-11.770334	3.34981632
0.295696924	-11.42701407	3.015889826
0.255754987	-11.37930873	3.479013357
0.711330545	-11.76994535	3.46503757
1.160478334	-11.78352216	3.352540728
0.260527716	-11.42303405	3.014614286
0.22082401	-11.37908304	3.478721054
0.676536081	-11.7950611	3.471804129
1.123407826	-11.7774484	3.349816319
0.22519491	-11.40927928	3.010787669
0.185912431	-11.37970746	3.478721055
0.639202118	-11.77600497	3.465601432
1.210003376	-13.1106876	3.727951048
0.189932821	-11.39444822	3.006705944
0.151011796	-11.38118009	3.479013355
0.583642261	-11.3984726	3.35395335
1.169518134	-13.11146297	3.727133749
0.155145194	-11.40754593	3.010022346
0.585227406	-11.42943056	2.895454223
0.11611363	-11.38350285	3.479597959
0.547885402	-11.38391765	3.349160419
1.129369778	-13.11594759	3.72740626
0.120177154	-11.41086888	3.01078767
0.544427413	-11.31206739	2.865285453
0.426808203	-8.910288847	1.906691603
0.08122991	-11.38954342	3.481351767
0.512655214	-11.37883596	3.347186791
0.998218955	-12.02431367	3.416289566
0.085103591	-11.40248113	3.008491697
0.480529465	-10.66577683	2.701197442
0.046325763	-11.39930182	3.484275014
0.477783251	-11.38131348	3.347468838
0.953428104	-11.92853072	3.38822913
0.050159124	-11.41139153	3.01078767
0.474194377	-11.2958224	2.860379989
0.01134441	-11.39078344	3.481644067
0.443087418	-11.38847871	3.349160421
0.929506854	-12.09640765	3.43508744
0.015153083	-11.41439242	3.011552994
0.443381388	-11.39603363	2.885397965
-0.023588204	-11.38407076	3.47959796
0.408558292	-11.4012901	3.352543817
0.963023843	-13.05685223	3.706973791
1.311297938	-11.75664318	3.227766498
-0.019875946	-11.42018609	3.013083639
0.409284712	-11.42156114	2.891529852
-0.058464775	-11.37438111	3.476674946
0.373452033	-11.39865427	3.351415861
0.922147481	-13.04822774	3.703704831
1.284894739	-11.84980868	3.252247083
-0.054963633	-11.43070752	3.015889827
0.374114935	-11.418887	2.890548759
-0.093235016	-11.35884774	3.471998127
0.338394277	-11.39686951	3.35057019
0.881333143	-13.03947489	3.700435634
1.244997076	-11.82011462	3.243033873
-0.090055135	-11.4333854	3.016655149
0.338821581	-11.41125989	2.888341242
-0.128136942	-11.36328947	3.473459633
0.303299904	-11.3930586	3.349160421
0.761422462	-11.80348666	3.348999023
1.204410648	-11.78165098	3.231451737
-0.125311738	-11.44949238	3.020991985
0.303836514	-11.41321477	2.888586574
-0.166743155	-11.62389234	3.553258807
0.2680514	-11.38146611	3.345495212
0.723436485	-11.77695622	3.340826034
1.167402899	-11.77665026	3.229082572
-0.160586721	-11.4596889	3.023798171
0.269093746	-11.42572342	2.891529851
-0.202903482	-11.65201174	3.56202808
0.233073368	-11.37935735	3.34464954
0.685172118	-11.74261941	3.33047366
1.133388272	-11.80226289	3.235136971
-0.200384315	-11.73080444	3.095483485
0.234098421	-11.42940336	2.892265613
-0.239707935	-11.70296536	3.577812583
0.198177589	-11.38097786	3.344931351
0.651479446	-11.78693729	3.342460631
1.098156054	-11.81625159	3.238032566
-0.236100252	-11.71660107	3.091911976
0.19876235	-11.4145586	2.888341242
-0.275363297	-11.69165779	3.574597032
0.163246548	-11.38057317	3.344649539
0.612907257	-11.74275937	3.329384087
1.179216556	-13.12537618	3.59576653
-0.271888039	-11.70905475	3.09012622
0.163797654	-11.41899278	2.889322337
-0.311333314	-11.6945823	3.575766238
0.128309044	-11.37910172	3.344085444
0.558893422	-11.37843719	3.225587606
1.138359337	-13.12220431	3.593923793
-0.307326814	-11.68980059	3.085279171
0.12887321	-11.42913511	2.891775185
0.501204044	-10.3626547	2.518164035
-0.347238697	-11.69452793	3.576058539
0.093460844	-11.38711686	3.34634112
0.524247765	-11.38586434	3.227222201
0.990562205	-11.84027861	3.241981015
-0.343104029	-11.6859029	3.084513846
0.093816475	-11.43044588	2.89202028
0.469673319	-10.36996849	2.519579288
-0.383146682	-11.69436333	3.57635084
0.058554808	-11.39310681	3.348032701
0.489850961	-11.39991612	3.230763908
0.946561609	-11.74806203	3.215920912
-0.379204998	-11.69252656	3.086554709
0.058787776	-11.43843565	2.893982466
-0.418988431	-11.69217734	3.57605854
0.023626811	-11.40570516	3.351697909
0.455257759	-11.41097949	3.233488081
0.910216505	-11.74706384	3.214868056
-0.415555694	-11.70483644	3.09012622
0.023678809	-11.43080655	2.892020281
-0.454746037	-11.68796995	3.575181636
-0.011371246	-11.41148037	3.353389489
0.419928583	-11.40366881	3.231036185
-0.450755504	-11.68514904	3.085279171
-0.011391489	-11.43179527	2.892265614
-0.490401504	-11.68174212	3.573720129
-0.046381123	-11.41139185	3.353389489
0.384518692	-11.3924027	3.227494715
-0.486522444	-11.68177942	3.084768956
-0.04648733	-11.43752322	2.893737371
-0.525980047	-11.67445039	3.571966321
-0.081411089	-11.41407414	3.354235397
0.349211397	-11.38198767	3.224225518
0.804359388	-11.78863023	3.224081026
-0.523223327	-11.69955031	3.089871113
-0.08156311	-11.43538758	2.893246706
-0.561794239	-11.67278191	3.571966322
-0.116428592	-11.41377089	3.354235398
0.314423092	-11.38781507	3.225587606
0.77138729	-11.84014011	3.237506137
-0.559068408	-11.69692443	3.089616005
-0.116626218	-11.43314459	2.892756277
-0.597749937	-11.673869	3.572843227
-0.151457725	-11.41431871	3.354517208
0.279578706	-11.39257286	3.226677414
0.731950798	-11.79238148	3.223817814
-0.594509315	-11.68646261	3.087320033
-0.15176638	-11.43757964	2.893982465
-0.633924871	-11.67866436	3.574889334
-0.191318569	-11.71022559	3.44163655
0.244501553	-11.38760547	3.225042817
0.694746226	-11.77723606	3.219079719
-0.629735059	-11.67299809	3.08425874
-0.191685824	-11.73270457	2.968791062
-0.670682513	-11.69289578	3.579858692
-0.227281367	-11.71150186	3.44220041
0.20966994	-11.394074	3.226677414
0.65834163	-11.77449643	3.217763649
-0.666645304	-11.69031762	3.089360896
-0.22773677	-11.73496894	2.969526822
-0.706437265	-11.6888733	3.579274088
-0.263641843	-11.72993324	3.447839247
0.174830425	-11.40236064	3.228856801
0.621553195	-11.76393614	3.214341389
-0.702681584	-11.69111325	3.090126221
-0.263672735	-11.73130759	2.968791062
0.528497926	-10.21934992	2.379412716
-0.742294917	-11.68665176	3.57927409
-0.299578531	-11.72715147	3.447275388
0.139776861	-11.39707022	3.227222201
0.567671354	-11.40831494	3.116682039
-0.339732441	-5.376914478	1.421463195
-0.299514094	-11.72462827	2.967319305
0.435390417	-8.951334483	2.083854505
-0.7782091	-11.68527366	3.579566391
-0.335500621	-11.72425854	3.446711526
0.104810485	-11.39744599	3.227222203
0.532533453	-11.40711195	3.115892161
-0.355204064	-5.360409844	1.417381467
-0.335705189	-11.73140667	2.96928149
0.40907877	-8.977925676	2.089742965
-0.814387719	-11.68760098	3.581027897
-0.371438187	-11.72221572	3.446429716
0.06978416	-11.38809182	3.224498029
0.497408369	-11.4057997	3.115102515
-0.376464075	-5.428745915	1.435749236
-0.371787156	-11.73322828	2.97001725
0.382070498	-8.991789551	2.092687433
-0.477751438	-6.919091435	1.287184159
-0.850518569	-11.68886249	3.582197101
-0.407366348	-11.72006173	3.446147667
0.034919259	-11.41230644	3.231308695
0.462413493	-11.40727259	3.115102517
-0.396959243	-5.480606717	1.449780171
-0.407917149	-11.73590861	2.970998344
-0.41222503	-5.714907139	1.284637493
-0.499259608	-6.921516063	1.287913961
-0.886375456	-11.68619811	3.582197101
-0.443176003	-11.71492218	3.445019948
-9.34E-5	-11.41813366	3.232943296
0.4273782	-11.407673	3.114839301
-0.413553208	-5.476470555	1.449014847
-0.443957127	-11.73557003	2.971243674
-0.433342366	-5.761293473	1.295357386
-0.520713427	-6.922893036	1.288461487
-0.922449822	-11.68628357	3.583074004
-0.478957963	-11.7096724	3.443892226
-0.035123752	-11.41807903	3.232943294
0.392411086	-11.40989533	3.115102518
-0.431868151	-5.4944548	1.454117121
-0.480078129	-11.7370591	2.971979672
-0.465031405	-5.938932039	1.335611741
-0.541182564	-6.911460685	1.286636633
-0.958767543	-11.6891179	3.584827813
-0.514585394	-11.70143802	3.441918597
-0.070183317	-11.42272833	3.23430538
0.357373984	-11.41008102	3.114839302
-0.448959041	-5.495995246	1.454882446
-0.515743927	-11.72778255	2.97001725
-0.500505714	-6.1494952	1.383304279
-0.994462504	-11.68421547	3.58424321
-0.550392294	-11.69788754	3.441354737
-0.10531606	-11.4320806	3.237029788
0.322284919	-11.40823103	3.11404966
-0.464838249	-5.483030236	1.451821149
-0.551494007	-11.72130354	2.968791062
-0.547050864	-6.475600238	1.457030934
-1.030472531	-11.68301465	3.584827812
-0.58685473	-11.70764312	3.444737899
-0.140471397	-11.43843873	3.238936662
0.28708917	-11.40144999	3.111943708
-1.028822963	-11.70867494	3.10109586
-0.587306258	-11.71665124	2.968055065
-0.563339978	-6.433064796	1.447842517
-0.54404517	-6.212727964	1.157443803
-1.065702093	-11.67313196	3.582781704
-0.622005932	-11.69141625	3.440508829
-0.178472456	-11.62748027	3.292605874
0.252151335	-11.4042061	3.112470137
-1.064389551	-11.70161161	3.100075428
-0.623610198	-11.72157137	2.969772155
-0.583602338	-6.437137267	1.449155133
-0.564967283	-6.231592704	1.161275786
-1.102408425	-11.67932861	3.585704717
-0.658303046	-11.69711665	3.442764507
-0.216022358	-11.72885092	3.321483372
0.217162524	-11.40492653	3.112470138
-0.493009319	-5.241704532	1.389064493
-0.660167768	-11.7302494	2.972470098
-0.603348409	-6.435316448	1.449155132
-0.59638131	-6.361004939	1.185727636
-1.139162804	-11.6854093	3.588627728
-0.694925259	-11.70749236	3.446429715
-0.252108306	-11.73294244	3.322845693
0.182279522	-11.41229162	3.114312875
-0.514043653	-5.291173435	1.40258521
-0.696382331	-11.7320404	2.973451192
-0.618949997	-6.390700867	1.439529101
-0.622718104	-6.429606559	1.198865812
-1.17596488	-11.69137499	3.591550742
-0.731318314	-11.71296563	3.448685155
-0.288150533	-11.73403791	3.323390482
0.147253803	-11.41183221	3.11404966
-0.543294859	-5.419453911	1.437024777
-0.732432824	-11.7308163	2.973696524
-0.643599765	-6.439260637	1.450905245
-0.643027633	-6.433536137	1.199960748
-1.211926546	-11.68866264	3.59184304
-0.767249755	-11.71066686	3.448685155
-0.324122102	-11.73213639	3.323117969
0.112251594	-11.41319473	3.114312873
-0.562702136	-5.444691713	1.444167798
-0.76810217	-11.72367697	2.972470099
-0.661851766	-6.422696313	1.447623652
-0.66316552	-6.435445307	1.20069055
-0.59819975	-5.601862346	1.721968442
-0.803502316	-11.71304435	3.450094925
-0.359760013	-11.71954649	3.319849011
0.07726199	-11.4173443	3.115365731
-0.56845216	-5.340061411	1.416871254
-0.804530672	-11.72803554	2.974186952
-0.689896236	-6.499231524	1.465344349
-0.457343174	-6.644832524	1.42364364
-0.682906103	-6.433380466	1.20069055
-0.616636741	-5.611407867	1.725476057
-0.839159221	-11.70669611	3.448966969
-0.395713363	-11.71838773	3.319849011
0.042251551	-11.42235163	3.11668204
-0.592098208	-5.404612384	1.434473698
-0.84043868	-11.72454484	2.973941855
-0.720536037	-6.595054737	1.487440505
-0.477306252	-6.637545617	1.422389439
-0.765322548	-7.004985486	1.30780391
-0.499581661	-6.933780488	1.220028038
-0.635352711	-5.62279389	1.729568394
-0.875070913	-11.70406665	3.448966969
-0.431556758	-11.71423389	3.319031712
0.007209291	-11.42435624	3.117208466
-0.622532241	-5.525757178	1.467127624
-0.873875339	-11.68807554	2.965357121
-0.741310764	-6.597661469	1.488534369
-0.498033383	-6.64092598	1.423434548
-0.792079492	-7.049503243	1.316562693
-0.521220827	-6.937126343	1.220892307
-0.647747342	-5.579020733	1.716706906
-0.911346711	-11.70610868	3.450376735
-0.467570225	-11.7147773	3.319576498
-0.027866036	-11.43493671	3.12010406
-0.634033547	-5.476756864	1.454627337
-0.444556092	-5.71025523	1.449076112
-0.703682512	-6.094209923	1.375428477
-0.515131739	-6.597444165	1.414446644
-0.813928923	-7.048993694	1.316927711
-0.663049166	-5.561813516	1.712030085
-0.947798092	-11.7099526	3.452350366
-0.503260541	-11.70752006	3.317941901
-0.06295311	-11.43576245	3.120367275
-0.659507711	-5.547757314	1.474015536
-0.460977859	-5.695335974	1.445642286
-0.716975678	-6.046480171	1.365146082
-0.544309975	-6.705974167	1.438066056
-0.83543531	-7.045486694	1.316745201
-0.681735143	-5.573042392	1.716122301
-0.983879914	-11.70890171	3.452914226
-0.539353396	-11.70976563	3.319031711
-0.098062046	-11.43840916	3.121156917
-0.678164098	-5.559144938	1.477587046
-0.477718146	-5.685200757	1.443434771
-0.733872464	-6.030691293	1.362083238
-0.570628375	-6.772485224	1.452697567
-0.800987047	-6.582213732	1.23061661
-0.700258148	-5.582311377	1.719629917
-1.019381299	-11.70104865	3.451504456
-0.575559263	-11.71382168	3.320666308
-0.133221509	-11.44384291	3.122736204
-0.696536457	-5.567592308	1.480393235
-0.47849833	-5.492480713	1.394870692
-0.753820997	-6.040030717	1.364708584
-0.593530768	-6.79505759	1.457923105
-0.748118733	-5.994340782	1.121131105
-0.720185785	-5.60195291	1.726352964
-1.054240443	-11.68640011	3.448121297
-0.611594371	-11.71392324	3.321211098
-0.169167277	-11.50029293	3.138267026
-0.713983264	-5.568306258	1.481158558
-0.500311592	-5.546022198	1.408851202
-0.770490847	-6.023171214	1.36142699
-0.60433348	-6.682175723	1.434094716
-0.353081901	-6.620573773	1.349849214
-0.765757042	-5.98616539	1.120036284
-0.745359399	-5.66039793	1.745060477
-0.524454836	-5.620884882	1.658932555
-0.647688677	-11.71487398	3.322028397
-0.208598908	-11.73314831	3.201969609
-0.767830444	-5.846023896	1.555650178
-0.516513588	-5.535773771	1.406643802
-0.828141748	-6.319737665	1.429027955
-0.626106252	-6.69392139	1.437020948
-0.373281516	-6.617502852	1.349450221
-0.783352256	-5.977938922	1.118941466
-0.759399994	-5.633442753	1.737460526
-0.540960525	-5.611609177	1.656677112
-0.683962706	-11.71859459	3.323662993
-0.244775704	-11.74113436	3.20433854
-0.786406455	-5.848431895	1.556925716
-0.532378407	-5.522583191	1.403700524
-0.903708256	-6.735926281	1.523756784
-0.62002191	-6.416503412	1.377867987
-0.393465592	-6.614369893	1.349051109
-0.80561076	-6.004741811	1.124415677
-0.778508952	-5.644349309	1.741552859
-0.558079142	-5.608968578	1.656395183
-0.719911612	-11.71644096	3.323662993
-0.280795827	-11.74032795	3.204338539
-0.805004464	-5.850781166	1.558201256
-0.549318925	-5.520923896	1.403700524
-0.922246058	-6.717654669	1.520256441
-0.614376449	-6.160595979	1.323313406
-0.821622167	-5.984708746	1.121131104
-0.792215413	-5.616366838	1.73366061
-1.198648232	-11.68308104	3.451222644
-0.755667899	-11.71129702	3.322845695
-0.316136668	-11.71433732	3.197494495
-0.852591915	-6.058929461	1.614325108
-0.567342654	-5.529821229	1.406398472
-0.376455482	-5.766926937	1.402727838
-0.911508749	-6.491579265	1.469719808
-0.630673266	-6.13339008	1.317878893
-0.835604224	-5.951002797	1.115291992
-0.724649442	-7.037663963	1.2416352
-0.790062815	-5.479501847	1.692153249
-1.233880792	-11.67362436	3.449531065
-0.791594087	-11.70892295	3.322845694
-0.35282786	-11.73838352	3.204338537
-0.875581851	-6.086910956	1.622488559
-0.588381325	-5.56661776	1.416209395
-0.393218529	-5.752171463	1.399425622
-0.873605204	-6.085981759	1.378491321
-0.648457179	-6.12170136	1.315788676
-0.939215587	-6.543057824	1.226784628
-0.813142068	-5.519627272	1.705307039
-0.623169854	-5.727588853	1.693047271
-0.826630828	-11.69396269	3.319303988
-0.388008532	-11.71217722	3.197494496
-0.784860922	-5.339934713	1.424014275
-0.606085856	-5.570569202	1.417681151
-0.409617575	-5.733490127	1.395179864
-0.890431677	-6.070722605	1.375647229
-0.662995467	-6.080797246	1.307427814
-0.838466827	-5.572901863	1.722553047
-0.631135844	-5.639836781	1.667672738
-0.86264512	-11.69329078	3.319849012
-0.423869368	-11.70900351	3.196968067
-0.811861869	-5.408260287	1.442892258
-0.624035809	-5.576391205	1.419643337
-0.424461217	-5.695380952	1.386216757
-0.905582562	-6.044801782	1.370396654
-0.694289248	-6.191465778	1.331674269
-0.865142366	-5.632689001	1.741845162
-0.649093393	-5.643593011	1.669364321
-0.899105415	-11.69826406	3.322028397
-0.459449336	-11.69897139	3.1945989
-0.839582267	-5.478381074	1.462280572
-0.66329511	-5.767070983	1.46869796
-0.922058068	-6.028491068	1.36733381
-0.722349689	-6.267996526	1.348604969
-0.883603816	-5.637566813	1.744183574
-0.66302814	-5.612990657	1.660906181
-0.93683122	-11.71846889	3.328566786
-0.495339153	-11.69750748	3.194598902
-0.853696502	-5.458584119	1.45768863
-0.673706754	-5.703392399	1.453000481
-0.947170376	-6.068054631	1.376959842
-0.713991256	-6.032679052	1.298439911
-1.024442165	-6.56309707	1.232806365
-0.829618799	-7.001267963	1.237313744
-1.920007905	-12.00907079	3.717241916
-0.676550344	-5.58045178	1.651884068
-0.97357473	-11.72512812	3.331290958
-0.532099703	-11.71520711	3.199863659
-0.873181208	-5.473126509	1.462280573
-0.674749722	-5.565599421	1.418416913
-0.970692646	-6.095956597	1.383960645
-0.728486717	-5.997453833	1.291333132
-1.040243444	-6.532735789	1.227697054
-0.855493869	-7.034866054	1.243709442
-1.954687961	-11.98990914	3.713149698
-0.688103253	-5.533601028	1.638632882
-1.008964374	-11.71537597	3.329384085
-0.568085692	-11.71448312	3.200126873
-0.897110491	-5.514322584	1.474015535
-0.686916692	-5.524059289	1.408360657
-0.987982573	-6.084281485	1.381991666
-0.744102672	-5.972871084	1.286525659
-0.546712472	-6.266153187	1.280621042
-0.963991826	-5.936538973	1.116204302
-0.87219649	-6.993113334	1.236795183
-1.99130658	-11.98291294	3.712857398
-0.70495554	-5.530511921	1.63835095
-1.044559889	-11.70839178	3.328294275
-0.604767811	-11.72713672	3.204075323
-0.896781259	-5.407571263	1.446208661
-0.706802988	-5.545005735	1.41424721
-0.516563354	-5.741433107	1.399189707
-1.085206182	-6.555820681	1.489846985
-0.760317884	-5.954069448	1.282972268
-0.568579156	-6.293724218	1.286606183
-1.091708361	-6.595100931	1.240652839
-0.9255759	-5.466005581	1.694491776
-0.72216807	-5.530226051	1.638914811
-1.079060826	-11.68980273	3.32393527
-0.640216898	-11.71559315	3.20144318
-0.90418357	-5.350450979	1.431667511
-0.718413709	-5.501475617	1.403700524
-0.529402749	-5.688538264	1.386688468
-1.13404249	-6.722766719	1.528569858
-0.786065067	-6.008918111	1.295304587
-0.561540336	-6.009988243	1.2289493
-1.100979307	-6.526763205	1.228426973
-0.948518142	-5.498951447	1.705599338
-1.580237804	-11.81864592	3.503945336
-0.503774423	-5.280495617	1.50191426
-0.676156845	-11.71357433	3.201443182
-0.923054875	-5.361945093	1.435494129
-0.728093718	-5.445435127	1.389965229
-0.535504264	-5.568874233	1.357912181
-1.127559839	-6.561540478	1.492690963
-0.912247271	-6.810960525	1.468792133
-0.575833371	-5.9653212	1.220171086
-1.132820619	-6.592153921	1.24138264
-2.105149662	-11.98479953	3.719288024
-0.771565454	-5.638809228	1.672465669
-0.535817697	-5.439791943	1.547682758
-0.71302718	-11.7268519	3.205654846
-0.943173937	-5.380040455	1.441106502
-0.723505507	-5.287574093	1.350230866
-0.563433131	-5.676479788	1.384565708
-1.144657372	-6.540748907	1.488753119
-0.889582494	-6.490346056	1.400233201
-0.605789269	-6.080534742	1.244111648
-1.152700823	-6.586710415	1.241017739
-0.9935198	-5.556101498	1.725183757
-0.813995402	-5.81599807	1.725752223
-0.549489344	-5.408448216	1.539237378
-0.747709689	-11.70439093	3.200126873
-0.959335487	-5.375217984	1.440596288
-0.739992911	-5.287249968	1.350721414
-0.582923665	-5.695025924	1.389518974
-1.127406658	-6.327785212	1.441060464
-0.859800394	-6.133136656	1.323731472
-0.623840467	-6.072799106	1.242914667
-1.173937871	-6.588951076	1.242112559
-2.128821493	-11.69786321	3.634227426
-0.807508957	-5.643466346	1.675285087
-0.555860154	-5.309128414	1.511449335
-0.78342136	-11.69915372	3.199337229
-0.975303502	-5.369395499	1.439830964
-0.756210494	-5.284954524	1.350721412
-0.608750194	-5.772457569	1.408860443
-1.112690575	-6.136113651	1.398180883
-0.859328296	-5.995915539	1.294677546
-0.65711233	-6.209228932	1.271244278
-1.195725789	-6.594025517	1.243754904
-2.166615235	-11.70162099	3.63744274
-0.858550306	-5.871651314	1.743796452
-1.261339887	-11.70057458	3.332108259
-0.820793229	-11.7178675	3.205128416
-0.992299106	-5.369230123	1.440596286
-0.772701441	-5.284528206	1.351211959
-0.627086291	-5.776359427	1.410275695
-1.16267105	-6.301557284	1.436685008
-0.878002895	-5.995186133	1.295095496
-0.654299389	-6.00651209	1.23014628
-2.202859026	-11.69679799	3.638027341
-0.874576149	-5.855705103	1.739849198
-1.298609675	-11.7090818	3.335649966
-0.853854408	-11.67584598	3.194335687
-1.007516594	-5.359508842	1.438810532
-0.789340108	-5.285009232	1.351947837
-0.636393029	-5.699077309	1.391877649
-1.182178424	-6.298919559	1.436903757
-0.894221625	-5.977956668	1.291960171
-0.684616171	-6.110621306	1.25189232
-0.989005663	-6.60529341	1.172146437
-1.03680395	-5.413873908	1.684845718
-0.884148261	-5.797983098	1.72349678
-1.338341284	-11.7385016	3.345185039
-0.401763412	-5.271444358	1.442518339
-1.022139006	-5.346895454	1.436259453
-0.802189253	-5.260520127	1.346306497
-0.652988135	-5.689374393	1.389990685
-1.200400139	-6.2895121	1.435591142
-0.911966976	-5.971318644	1.291124157
-0.703584263	-6.110439029	1.252291313
-1.295626449	-6.788451483	1.282622258
-1.008521596	-6.597359889	1.171282169
-2.274770625	-11.68400025	3.638319643
-0.888210545	-5.707077427	1.69727634
-0.613246511	-5.235967972	1.492651579
-0.418162881	-5.273072365	1.443307985
-1.037062555	-5.336141165	1.434218589
-0.821604412	-5.279108414	1.351702505
-0.669302126	-5.677693489	1.38763201
-0.50848143	-6.322374521	1.47484631
-1.22080567	-6.291547224	1.436903757
-0.92832458	-5.95593107	1.288406898
-0.717609439	-6.068353676	1.244111647
-1.02541716	-6.57282475	1.16747939
-2.310605812	-11.67696583	3.638319641
-0.911131708	-5.738437956	1.707426177
-0.634935392	-5.280871458	1.506000754
-0.429981631	-5.218883174	1.42883025
-1.052304416	-5.327242636	1.43268794
-0.839924907	-5.289967569	1.35513633
-0.681815229	-5.635093919	1.377725362
-0.479157524	-5.737432082	1.338730998
-1.266913105	-6.423713516	1.467969577
-0.944289245	-5.938568369	1.285271575
-0.733508095	-6.043750071	1.239523043
-0.569180356	-6.759882075	1.314583202
-1.348289522	-6.836322357	1.293205779
-1.045887073	-6.57159354	1.167825098
-1.069810385	-5.320659062	1.658830555
-0.933793447	-5.76686966	1.716730222
-0.64406657	-5.221602155	1.489654777
-0.445004931	-5.206005172	1.425671445
-1.063505583	-5.298393149	1.425800028
-0.859404508	-5.307462788	1.360287125
-0.665946552	-5.365840705	1.312389013
-0.496673445	-5.73496477	1.338504618
-1.301762685	-6.49538006	1.485252661
-0.947320635	-5.842009148	1.26499646
-0.843798022	-6.778544392	1.390747656
-0.589062973	-6.748323992	1.312680742
-1.360948867	-6.790700026	1.285359305
-1.065727899	-6.566409292	1.167479391
-1.088234154	-5.327658707	1.66204587
-0.953356735	-5.775337527	1.720113503
-0.660566062	-5.223419902	1.490744587
-0.46131509	-5.208459319	1.426724304
-1.076085083	-5.277104776	1.42095298
-0.879630875	-5.328713498	1.366418892
-0.674433575	-5.301111462	1.297057386
-0.514004682	-5.73050374	1.337825126
-1.326745817	-6.516215684	1.490940849
-0.966834122	-5.848723728	1.267086677
-0.862977953	-6.763287633	1.388154138
-0.570526819	-6.312363147	1.228212615
-1.37314488	-6.744101063	1.277330438
-1.0858684	-6.56310897	1.167479391
-1.476197451	-7.115602593	2.221225175
-0.961998287	-5.718455246	1.704042897
-0.68759262	-5.306292253	1.514990923
-0.480110197	-5.237761709	1.43514775
-1.087759696	-5.252001614	1.415085498
-0.89854825	-5.341286167	1.370343263
-0.694462078	-5.327926301	1.30413353
-0.555071088	-5.982030293	1.396936721
-1.347916675	-6.51784804	1.492253464
-0.984935679	-5.846694001	1.267295767
-0.836984353	-6.403048192	1.314736357
-0.576275929	-6.164939276	1.199866315
-1.391837839	-6.730228317	1.275505702
-1.111893775	-6.594711163	1.173702236
-1.498415123	-7.112911738	2.221809778
-0.968355062	-5.650227484	1.684589132
-0.706653489	-5.325141979	1.52098441
-0.50900937	-5.371684958	1.472263682
-1.112822624	-5.291219398	1.426565354
-0.9172235	-5.351881789	1.373777087
-0.71594702	-5.364300224	1.313568349
-0.545623935	-5.690398255	1.329218812
-1.370914932	-6.528006164	1.495535057
-1.003695445	-5.848464119	1.268340876
-0.818928007	-6.11879174	1.256879918
-0.598773001	-6.200275593	1.207095525
-1.412681377	-6.726888832	1.275688094
-1.133121209	-6.597093192	1.174739357
-1.507029864	-7.046559675	2.202517662
-0.980241172	-5.616040553	1.675285088
-0.721821997	-5.314368114	1.518532514
-0.525768933	-5.372978262	1.47305344
-1.110273503	-5.199839498	1.402840318
-0.950474401	-5.445498971	1.39854973
-0.82643356	-6.050512048	1.482216473
-0.601455743	-6.076408977	1.419811315
-1.398668132	-6.560033866	1.503848474
-1.021970261	-5.847283976	1.268758826
-0.815091842	-5.951208699	1.222964159
-0.619155491	-6.212085668	1.209759015
-1.434337611	-6.727331071	1.276600521
-1.179830341	-6.744939581	1.201705095
-1.212769486	-5.586794435	1.747398887
-0.976315057	-5.493982929	1.639760718
-0.761694011	-5.481765799	1.567025302
-0.54070008	-5.355982401	1.468841659
-1.118848206	-5.162389784	1.393656434
-1.056227201	-5.94366996	1.527318412
-0.872827114	-6.247172732	1.531041859
-0.581617382	-5.697601922	1.331710165
-1.428488234	-6.600535833	1.514130754
-1.097296493	-6.166654682	1.338780931
-0.827908211	-5.90986299	1.214983931
-0.636605155	-6.194531583	1.206715126
-1.202417592	-6.751954916	1.203606602
-1.599615604	-7.261323595	2.272670896
-0.990433533	-5.475856157	1.635249603
-0.751303762	-5.28792921	1.512266635
-0.553235553	-5.316876002	1.458575593
-1.677200828	-7.625550801	2.059999171
-1.008198761	-5.574074964	1.433133299
-0.839907101	-5.87985992	1.441646572
-0.597871982	-5.684166985	1.328992316
-1.443917205	-6.574201837	1.509099047
-1.131197743	-6.246013624	1.356756857
-0.840617544	-5.869465173	1.207203259
-1.288714598	-5.867559545	1.114926976
-1.207844077	-6.66391747	1.188567992
-1.213024276	-5.427120322	1.699753197
-1.016085269	-5.520914505	1.649628624
-0.794623806	-5.472228218	1.565663216
-0.56810588	-5.301723921	1.454890354
-1.336251377	-5.987770064	1.618661942
-0.990726651	-5.383127878	1.384814436
-0.888262269	-6.084959525	1.492594834
-0.61677597	-5.695862735	1.332163043
-1.468112407	-6.587836723	1.513255755
-1.152304384	-6.253092564	1.359056047
-0.860181727	-5.877523963	1.209397784
-0.747986251	-6.863920593	1.337983151
-1.305426791	-5.857820136	1.113832157
-1.243202508	-5.483063192	1.718460712
-1.079628759	-5.766735978	1.724060642
-0.85884787	-5.789555647	1.657200095
-0.578024877	-5.242420932	1.439096317
-1.389841699	-6.139245324	1.660754743
-1.006523597	-5.376251296	1.383833343
-0.912085974	-6.116807428	1.50108623
-0.668645053	-6.002744941	1.404410667
-1.510694155	-6.682284454	1.53600816
-1.204094437	-6.423499603	1.396888902
-0.880237906	-5.888425119	1.212190858
-0.767947437	-6.851837104	1.33608069
-1.319056056	-5.834607141	1.110182565
-0.989318099	-6.606298002	1.106579589
-1.266662637	-5.508115009	1.727522166
-1.062682507	-5.5814937	1.669646251
-0.934681272	-6.170276581	1.766989945
-0.593888334	-5.238705636	1.438569888
-1.432256095	-6.237672829	1.688561503
-1.023738197	-5.376947754	1.384814437
-0.847621454	-5.567334495	1.366875288
-0.696032693	-6.079048184	1.422755663
-1.525299691	-6.65193857	1.530101221
-1.250531413	-6.560024903	1.427406004
-0.903473723	-5.919600851	1.219173543
-0.749533577	-6.507122927	1.269305249
-1.325742999	-5.781657551	1.100876371
-1.284206837	-5.506997408	1.728399072
-1.061932279	-5.485896233	1.642016159
-0.946990869	-6.124590568	1.75473058
-0.60672093	-5.209069871	1.430936085
-1.783369808	-7.659014833	2.074795429
-1.038571484	-5.365215368	1.38260692
-0.903791995	-5.816296222	1.428673623
-0.716044834	-6.088492594	1.425473399
-1.442270624	-6.202431755	1.427715341
-1.268604585	-6.545596836	1.425106697
-0.923289513	-5.927451554	1.221368067
-0.767071669	-6.484319078	1.26531007
-1.338798174	-5.757452103	1.097044387
-1.311096815	-6.759790376	1.208446501
-1.709050025	-7.228487307	2.270332488
-1.13006549	-5.743375599	1.720113502
-0.954830624	-6.052275972	1.734843133
-0.632436094	-5.288605897	1.453310952
-1.364974991	-5.781771799	1.567385141
-1.053716649	-5.355345421	1.380890066
-0.840987225	-5.30480322	1.303661703
-0.723864526	-5.996336769	1.404410667
-1.453903343	-6.166636398	1.420495788
-1.299453916	-6.596363778	1.437020949
-0.931320546	-5.86071914	1.208200803
-0.785778413	-6.472189175	1.263407609
-1.355327306	-5.748533022	1.096131962
-1.331067399	-6.751870791	1.207755087
-1.731441532	-7.224139857	2.270624788
-1.147304346	-5.737999811	1.719549641
-0.931664253	-5.789979828	1.660469291
-0.664871844	-5.418782903	1.489637123
-1.357951244	-5.67411761	1.539323273
-1.067670696	-5.339729022	1.377701457
-0.855552004	-5.291645504	1.301067113
-0.732921001	-5.91869008	1.386745043
-1.475310589	-6.172586614	1.422902268
-1.315462197	-6.571250594	1.432422451
-0.944593965	-5.828815802	1.202215661
-0.801263931	-6.434676223	1.256558914
-1.367471759	-5.721397252	1.091752569
-1.347325717	-6.725542842	1.203779455
-1.786329925	-7.353542251	2.313008937
-1.164711909	-5.733512745	1.719267711
-0.950202157	-5.791841843	1.661831495
-0.681493336	-5.416717629	1.489637123
-1.371022086	-5.652070848	1.534476222
-1.080766826	-5.320277333	1.373531871
-0.872256686	-5.291872055	1.301774737
-0.751811816	-5.922211499	1.388103911
-1.491943463	-6.158547727	1.420714538
-0.966624839	-5.851027217	1.207402815
-0.823363173	-6.45069057	1.260173577
-1.352146423	-5.581484169	1.065841
-1.368149546	-6.722342858	1.203952309
-1.360604689	-5.527038615	1.739799052
-1.179000513	-5.713938448	1.714474663
-0.921472666	-5.510842534	1.582009075
-0.703289633	-5.454787183	1.500692948
-1.79159078	-7.288199449	1.980150403
-1.093753676	-5.30079599	1.369362171
-0.893317443	-5.317922121	1.308850883
-0.818972551	-6.296570065	1.476431675
-1.239095122	-5.047103791	1.165187161
-0.979853108	-5.820011618	1.201617114
-0.826475116	-6.320612446	1.235251567
-1.36856053	-5.574445016	1.065293591
-1.385192632	-5.553459203	1.749445112
-1.197902432	-5.7168679	1.716448293
-0.942253579	-5.530753609	1.588547465
-0.765614703	-5.797875082	1.595720157
-1.478589697	-5.936285115	1.614070001
-1.109812348	-5.296466536	1.369116955
-0.901268086	-5.266305351	1.296821471
-0.838029119	-6.2920967	1.475978679
-1.216648986	-4.890825149	1.129964748
-1.378496656	-6.571307114	1.435139708
-0.996710099	-5.811183187	1.200420132
-0.790236013	-5.902552756	1.154017589
-1.384232173	-5.564495167	1.064198771
-1.408561843	-6.709965531	1.203260777
-1.402223981	-5.549183281	1.749445112
-1.225418214	-5.760087603	1.730545269
-0.951979133	-5.486124682	1.576560495
-0.751478634	-5.559357466	1.530701503
-1.503892154	-5.959846558	1.621723236
-1.126459839	-5.294933164	1.369607501
-0.919756764	-5.276918612	1.300123688
-0.846936389	-6.213253837	1.458086676
-1.234986583	-4.90031599	1.133027475
-1.395595023	-6.552700061	1.432004501
-1.014702551	-5.809063311	1.200619571
-0.806875233	-5.889401189	1.15192487
-1.405862588	-5.578336549	1.067665736
-1.274750372	-5.981202292	1.073271987
-1.404539756	-5.487414979	1.731322202
-1.233565512	-5.712223673	1.717294084
-1.06489963	-6.027042634	1.732936024
-0.826418612	-5.975594884	1.645997631
-1.562875742	-6.11445991	1.665091578
-1.142903884	-5.292400248	1.369852718
-0.939677441	-5.295122566	1.30531287
-0.881732409	-6.323494482	1.484584995
-1.250256073	-4.897449502	1.133246341
-1.4158985	-6.549343609	1.432213477
-1.03595109	-5.825218151	1.204609742
-0.824394885	-5.883009209	1.151163956
-1.424186005	-5.5787606	1.068578163
-1.277266579	-5.904099901	1.060134884
-1.418728513	-5.472896827	1.728106769
-1.245127964	-5.681233475	1.709117873
-1.078957062	-5.999125712	1.725852845
-0.824348264	-5.828791966	1.606249438
-1.59447026	-6.159247068	1.678612295
-1.285322278	-5.864631016	1.518979125
-0.959718401	-5.313253484	1.310502049
-0.933709298	-6.549290345	1.538261122
-1.269427744	-4.909650971	1.136965435
-1.355299929	-6.177220293	1.351740292
-1.186635765	-6.55579038	1.356432787
-0.843692853	-5.88919852	1.152876158
-1.442771428	-5.580076728	1.069672984
-1.947120202	-7.417464493	2.343993338
-1.27234074	-5.721404915	1.722368943
-1.095105188	-5.983483438	1.722311256
-0.830356742	-5.744122277	1.583611357
-1.612133131	-6.149649885	1.677336756
-1.397589717	-6.284619028	1.628861602
-0.977420063	-5.31793036	1.312389014
-0.955904267	-6.56085274	1.541658349
-1.294123559	-4.942547553	1.145497601
-1.359582384	-6.107169421	1.337317873
-1.210115433	-6.570429217	1.360223405
-0.863605364	-5.899210575	1.155349276
-1.461378414	-5.581330783	1.070767802
-1.309186101	-5.876923846	1.056677696
-1.964954465	-7.392971136	2.338147313
-1.28862089	-5.711859298	1.720677363
-1.123320041	-6.033066672	1.737567421
-0.830638301	-5.624158927	1.551233637
-1.633224927	-6.153085982	1.679632728
-1.417930876	-6.285029827	1.630088025
-0.997481243	-5.334966299	1.317342279
-0.824469235	-5.539571476	1.302267501
-1.326534709	-5.003634175	1.160592954
-1.366463904	-6.050506143	1.325821689
-1.223771435	-6.532012221	1.35304128
-0.882861291	-5.904300659	1.156871221
-1.534429592	-5.787804972	1.1112775
-1.311143752	-5.801786285	1.043886299
-1.984396253	-7.374902557	2.334347161
-1.309776875	-5.723778396	1.725470293
-1.141286841	-6.026755911	1.736750122
-0.848464568	-5.62539987	1.552286612
-1.656611255	-6.164854221	1.684224668
-1.443910105	-6.309946143	1.637691434
-1.013480861	-5.329971801	1.316870568
-0.879801864	-5.789311032	1.361605709
