Total points in the dominant plane: 3273
-3.254542421 1.457486995 -0.292864792
-3.475180616 1.406684167 0.763305178
-3.900227848 1.417495384 0.647248771
-2.584693688 1.275814911 0.318833212
-2.702416366 1.214804641 0.190148498
-3.187834564 1.164508262 0.029440159
-2.64426274 1.310273016 -0.10614865
-2.541457324 1.26314565 -0.310616802
-2.778201389 1.382128705 0.575893561
-3.104509277 1.405322762 0.469776117
-2.680703033 1.098283669 0.264358059
-2.663508709 1.327390673 0.110631239
-2.551407011 1.048745047 -0.050365904
-3.214697261 1.463389747 -0.29008185
-3.402155646 1.401481626 0.749140372
-3.833084853 1.419778996 0.637540009
-2.56793116 1.2871962 0.317733775
-2.711249845 1.238828793 0.191301296
-3.046486515 1.261814237 0.059572352
-3.167543078 1.451865726 -0.157800403
-2.56294468 1.293496291 -0.314207118
-2.703849368 1.365899657 0.562207858
-3.35406245 1.396811819 0.465564478
-2.79812388 1.053388409 -0.083409255
-3.369091646 1.412103248 0.743753722
-3.737406241 1.410477999 0.623053993
-2.786468921 1.058772452 -0.083158274
-2.589462195 1.326877498 -0.318450223
-2.98072086 1.391898824 0.703147402
-3.307275128 1.399159021 0.594882535
-3.637970684 1.387898724 0.461679641
-3.101233577 1.321127175 -0.185335303
-3.314393165 1.41314866 0.733578972
-3.665967859 1.409275311 0.612574721
-2.997689777 1.284923635 0.058922077
-2.730204534 1.057650817 -0.188980084
-3.657584817 1.415790372 0.760023136
-2.570126527 1.338014059 0.42802892
-2.679593209 1.273946269 0.298605448
-2.704283996 1.167648543 0.161074831
-2.541599754 0.990805342 0.023663156
-2.617287718 1.367679697 -0.106220541
-3.138652823 1.499118333 -0.285661868
-3.21126385 1.392525183 0.712630979
-3.606648257 1.411932475 0.604098823
-2.569329159 1.347634004 0.320922117
-2.727583104 1.307504734 0.194119269
-2.940256055 1.28171788 0.057946665
-2.568666037 1.012258177 -0.077023191
-2.558670917 1.348770188 -0.209816272
-2.535833525 1.222561282 -0.334840006
-2.561374479 1.353669594 0.649538259
-2.88783097 1.392436996 0.562651035
-3.189693725 1.397798354 0.446245391
-2.588226695 1.369132333 0.215998337
-2.749929844 1.330383981 0.084262193
-2.630143377 1.157354185 -0.052465243
-2.773204079 1.103768912 -0.192651477
-2.567926636 1.365974774 -0.318341415
-2.55673267 1.3612675 0.537573618
-2.623556371 1.276021312 0.402177507
-2.695807758 1.192419348 0.268992709
-2.56059604 1.0251472 0.124669542
-3.406997291 1.81862746 0.00262878
-2.754848603 1.345471294 -0.138844443
-2.583779257 1.038616952 -0.282419162
-2.557742958 1.371893393 0.538668494
-2.577821955 1.263571519 0.39575907
-2.719421752 1.212853434 0.271718994
-2.610236318 1.054324034 0.1272433
-3.396117428 1.82622982 0.002624696
-2.756981704 1.357004835 -0.139161136
-4.245859185 1.904755999 -0.426043909
-3.492567892 1.413890702 0.730154891
-2.52405941 1.363643969 0.423791001
-2.608004777 1.289324321 0.292797571
-2.746149748 1.236041422 0.164678542
-3.4159794 1.39240122 0.031999042
-2.61357082 1.417193177 -0.106939462
-4.21277514 1.905461345 -0.42330877
-3.454585848 1.41086532 0.723115881
-2.556358733 1.391242577 0.429928671
-2.698323776 1.223348568 0.270355866
-2.824544409 1.161096262 0.138035049
-2.536323759 1.266349132 -0.025432423
-4.38688946 1.808707944 -0.306271401
-2.584251311 1.295128083 -0.343816287
-2.662254283 1.333916786 0.636469654
-3.124568339 1.426784821 0.440144647
-2.572166481 1.411551418 0.216439754
-2.601491356 1.308189872 0.080319294
-2.605193806 1.312217144 -0.132103544
-3.088905621 1.704398142 -0.386122238
-2.556524069 1.411908466 0.654788833
-3.056633831 1.405173478 0.557293818
-3.395716153 1.416271589 0.436246636
-2.760952054 1.273391485 0.166261985
-3.387337291 1.417220974 0.03185158
-2.589927522 1.43537466 -0.106508111
-2.580247568 1.311121179 -0.237696863
-2.609766453 1.326968092 0.740726109
-2.569381498 1.429137804 0.434312711
-2.705452083 1.37906928 0.305614954
-2.76699212 1.28648665 0.166862606
-2.613611041 1.335129069 -0.02632951
-2.591294 1.326752694 -0.239088348
-2.562284067 1.43567682 0.658507984
-2.629922397 1.349705809 0.407503451
-2.745338191 1.285508323 0.276626304
-2.731985594 1.533269689 0.11646371
-2.59461354 1.218577307 -0.052337458
-4.328518826 1.84889593 -0.477358001
-2.56108735 1.445348248 0.54578505
-2.614329742 1.351852692 0.405728155
-2.857348246 1.224376956 0.254209839
-2.755843579 1.30333972 0.055074623
-2.586234955 1.342707199 -0.131967825
-3.204486824 1.521066772 -0.324752491
-3.268399143 1.405564673 0.689442774
-2.562999866 1.456635636 0.435481796
-2.732078899 1.555442544 0.11687236
-2.576458665 1.469524654 -0.106687841
-2.580738914 1.351470904 -0.239252023
-2.575253056 1.349444759 0.735575371
-2.916486679 1.39439015 0.658166162
-2.880404216 1.379919389 0.409259516
-2.761312633 1.326719729 0.055345571
-2.586669477 1.48588444 -0.107298923
-2.595973395 1.369613535 -0.241052769
-2.573672832 1.35869692 0.73631119
-2.568119025 1.480644966 0.550164444
-2.832389535 1.367616783 0.403031665
-2.574949301 1.485900618 0.219308943
-4.16971951 2.211344483 -0.042342517
-2.597919434 1.380845774 -0.241625719
-3.369840752 1.796118708 -0.596955926
-2.547567186 1.355667174 0.616821638
-2.551205724 1.35914647 0.398490305
-2.727087316 1.328340589 0.27680804
-2.728013405 1.58655081 0.11731815
-2.705879398 1.321868999 -0.054984452
-3.156595666 1.841338215 -0.265092024
-3.388687162 1.819535577 -0.601280599
-2.834879824 1.387572248 0.642604819
-2.962871137 1.45310498 0.422859151
-2.667347577 1.561114496 0.227990062
-4.176324908 2.247787782 -0.042548846
-3.179731617 1.71519522 -0.296711824
-2.56873676 1.386471074 0.738518649
-2.78842709 1.37545557 0.633028616
-4.169409187 2.2605901 -0.042548846
-4.162744632 1.884790736 -0.46343379
-2.554829784 1.515057233 0.551259319
-2.553378049 1.39062423 0.400811876
-2.574530948 1.528076787 0.220853881
-3.408650202 2.028228194 -0.142669817
-4.116214567 1.8789616 -0.458893286
-2.571099089 1.535386553 0.671415608
-2.610599558 1.3085698 0.483750628
-2.572042299 1.412089349 0.295300965
-2.584006001 1.423121377 -0.133596492
-3.054753636 1.835367721 -0.390038948
-2.578919729 1.550810191 0.674697201
-2.630348941 1.328582169 0.488163221
-2.573792963 1.42334413 0.296001916
-2.572639112 1.427165528 -0.133234572
-2.597709632 1.322127143 -0.266858677
-2.578268239 1.562562032 0.222398833
-3.148698621 1.761335137 -0.296302549
-2.604800071 1.334939471 0.59592073
-2.561034585 1.561347375 0.443080793
-4.145574172 2.330650059 -0.042665467
-3.223522134 1.519540224 -0.361423868
-2.573603835 1.32774222 0.702897069
-2.589104468 1.589563093 0.563850145
-3.347357122 2.061930979 -0.141411712
-3.035383792 1.874805631 -0.390474151
-2.940192447 1.392356301 0.756447562
-2.595157045 1.605640251 0.225120873
-3.149464007 1.955669665 -0.268926599
-3.295026992 1.729512943 -0.47863001
-2.582994247 1.60771764 0.682135503
-3.151867268 1.966456441 0.00252872
-3.177809698 1.829176342 -0.301131806
-3.06653098 1.92229835 -0.531150411
-2.563922056 1.477472618 0.632498254
-3.373076687 2.120844906 -0.143316855
-3.000341112 1.89153025 -0.388189387
-2.56655543 1.364241692 0.705491657
-2.870889835 1.394443308 0.618481894
-3.376686879 2.13759777 -0.143748199
-3.057539289 1.639760209 -0.31764112
-2.810165703 1.375619981 0.606306334
-4.164003761 2.244097876 -0.086365019
-3.129910217 1.840162216 -0.298185133
-2.755747556 1.359477688 0.595462403
-4.149190858 2.252569013 -0.086200727
-3.041297571 1.655157932 -0.317002933
-2.577719093 1.659828071 0.687386077
-3.266686592 2.108386887 0.002646477
-3.100583335 1.848614346 -0.296466254
-2.576046187 1.410099395 0.712803657
-2.524812438 1.508605055 0.405455017
-3.3351212 2.169066447 -0.143101176
-2.936001327 1.914525611 -0.383619915
-2.577291855 1.682012964 0.690011363
-3.323434437 2.176003847 -0.142885496
-2.895211608 1.90061207 -0.379050414
-2.577827771 1.693662646 0.691542783
-3.282220388 2.161462986 0.002675066
-2.877756372 1.901812534 -0.377527247
-2.596083586 1.328377662 0.678085038
-3.286408938 2.178705562 0.002683915
-3.030930304 1.857877159 -0.291964433
-3.281372822 2.189888075 0.002685276
-3.026912205 1.868214133 -0.292128137
-3.297098881 1.71942949 -0.514993316
-2.55899054 1.5811262 0.642949276
-2.582575169 1.467745987 0.492085561
-2.737195489 1.837427935 0.122556236
-3.400864761 2.111232964 -0.181280446
-2.849415487 1.920994239 -0.376112888
-2.573278018 1.470779343 0.719408033
-2.578955411 1.351944129 0.56426247
-2.570964922 1.734496843 0.458132694
-3.241366605 2.192054724 0.002663494
-3.207789545 1.846759253 -0.203506509
-3.023479976 1.894236273 -0.424366868
-2.587061756 1.757128006 0.701168815
-2.564853192 1.607076033 0.531190988
-2.605555457 1.503850149 0.385491985
-2.839895223 1.931750652 0.127682862
-3.411520166 2.146958762 -0.182547194
-3.148599805 1.827991065 -0.333322596
-2.579128874 1.496456044 0.607092966
-2.586119046 1.378485271 0.457080897
-2.560881083 1.750654458 0.343130481
-2.598318018 1.642021189 0.197257454
-2.695191551 1.570721671 0.056357106
-4.180625331 2.240510431 -0.132322607
-2.797988135 1.921211486 -0.246208558
-3.019344405 1.917543543 -0.425429857
-2.592307913 1.784032574 0.705544273
-2.574066576 1.634929204 0.535166736
-2.516669973 1.47320777 0.373671729
-2.601807858 1.657332911 0.085089372
-2.600086016 1.527343421 -0.055057471
-2.604919379 1.40746674 -0.191105631
-2.813367128 1.947329884 -0.374480914
-2.572960812 1.387055247 0.679670402
-2.59198393 1.79555285 0.585199814
-2.584986405 1.65422476 0.423071617
-2.856791453 1.551022437 0.146930342
-3.396785809 2.179410682 -0.036206439
-3.133336248 1.855458846 -0.200212637
-3.064868965 1.669537819 -0.353957282
-2.593061083 1.53532891 0.731437502
-2.584849989 1.802371769 0.584834855
-3.013289081 1.647978532 0.155238633
-3.456570991 2.417836955 -0.151728218
-2.940915601 1.90353994 -0.287708155
-3.037029578 1.814631634 -0.455030177
-2.580570484 1.811179329 0.706856888
-2.572612764 1.805393341 0.464270333
-3.412689414 2.219292246 -0.036520421
-3.149186858 1.739175237 -0.232199457
-2.817252353 1.988618996 -0.37741844
-2.59025685 1.555212503 0.733324466
-2.578552566 1.423142071 0.570730766
-2.561405723 1.809282232 0.463247398
-3.288757862 1.824937262 0.170003926
-3.399213684 2.406774706 0.002835025
-3.437431719 2.252646997 -0.186121222
-3.054788537 1.849533255 -0.326940607
-3.148861255 1.754359446 -0.499217039
-2.570764558 1.688211111 0.657371751
-2.567130641 1.825157232 0.465293298
-3.406522333 2.245142864 -0.03660116
-3.356803516 2.043838471 -0.216078127
-3.085803498 1.730380027 -0.358800459
-2.578197834 1.570870061 0.614674142
-2.56715039 1.837054309 0.466316233
-2.698320932 1.789471808 0.089308002
-3.383614487 2.429183236 -0.14982309
-2.86255688 1.903069069 -0.282305948
-3.057633475 1.87823995 -0.461536082
-2.58744498 1.863812538 0.714951497
-2.568700279 1.710022928 0.541562435
-2.545297631 1.564305056 0.382822889
-2.586170196 1.464574113 0.243043833
-3.42734874 2.472456051 0.157105279
-3.417628388 2.282664317 -0.036870286
-3.36459114 2.076984817 -0.217395673
-3.110583713 1.769450361 -0.362937378
-2.566843419 1.585630003 0.614275149
-2.58829624 1.472813336 0.464478041
-2.553418778 1.851023376 0.34884749
-2.564422867 1.721473162 0.198218117
-2.581131061 1.601310574 0.054875927
-2.599590646 1.486998204 -0.083548692
-2.817763481 1.898323247 -0.279031894
-3.075518461 1.915316945 -0.466000918
-2.583054268 1.884830164 0.716920476
-2.570407058 1.734014486 0.544155296
-2.575218425 1.604546288 0.388796557
-2.577999411 1.480911479 0.243125343
-3.438739312 2.512896217 0.158331212
-3.424260923 2.317603732 -0.037094556
-3.056386676 1.912727002 -0.198236312
-3.157404413 1.821817091 -0.369697677
-2.558726674 1.602390196 0.614674142
-2.591190779 1.495581989 0.466635521
-2.546018634 1.869597457 0.349397223
-2.590943119 1.762433593 0.201100135
-2.596647782 1.633086859 0.055417823
-2.608574804 1.51345558 -0.084134315
-2.780535455 2.05063588 -0.250621924
-2.842251659 1.942682618 -0.409485107
-2.589040179 1.499995455 0.695750601
-3.408797908 2.523246753 0.157662522
-4.944273808 3.665845314 -0.221391638
-2.782922783 1.912323683 -0.277313015
-3.051063506 1.939285842 -0.464980396
-2.583066673 1.776834128 0.670122078
-3.401842037 2.534289925 0.157699671
-3.320340989 1.953740354 -0.107475517
-2.774292894 2.072433607 -0.251200744
-2.82211478 1.95443234 -0.408304012
-2.590193711 1.939193554 0.725452643
-2.537322298 1.499253418 0.241006249
-3.4266561 2.571123223 0.002916026
-4.672983121 3.25022759 -0.257782873
-2.954835579 1.902437422 -0.321743856
-3.008097582 1.786503773 -0.484538203
-2.582545261 1.799919074 0.672839336
-2.903387136 1.729652379 0.152755176
-3.393224379 2.373295137 -0.037148382
-2.903473946 1.87962004 -0.190166319
-2.968534045 1.774083197 -0.350728469
-2.541754368 1.522990374 0.242310309
-2.726340722 1.773590265 0.058759509
-4.86312264 3.699017761 -0.219774072
-2.742143361 1.934266304 -0.275594108
-3.049458307 1.991222388 -0.468424681
-2.573050017 1.816859548 0.6732574
-2.81918315 1.703012793 0.148871963
-3.379414021 2.394648982 -0.037157353
-2.846804858 1.867821595 -0.187201837
-2.949934862 1.787623885 -0.349820363
-2.569137669 1.972873999 0.358302545
-3.401978479 2.61846956 0.002922152
-4.525423668 3.23071 -0.251811084
-2.86398683 1.894059532 -0.31435896
-2.566738513 1.570245079 0.246059471
-3.384152947 2.429334882 -0.037372652
-2.819492673 1.874749728 -0.186158771
-2.954168825 1.815065497 -0.351636575
-2.583153891 1.584924392 0.587281963
-2.79913829 1.726265749 0.148646196
-3.378545271 2.259236776 -0.074207103
-2.731507776 2.133372735 -0.251417794
-2.822911235 2.046052757 -0.414681917
-2.591751809 2.028650272 0.73792271
-3.415501096 2.679295526 0.002954825
-5.02694494 3.659058904 -0.28157961
-2.791948173 1.883580542 -0.308341663
-3.421590703 2.699035405 0.162009013
-3.338843197 2.090820113 -0.109901664
-2.73635823 2.164323719 -0.253081838
-3.072995059 2.088267962 -0.477864626
-2.575434282 1.890532247 0.682872346
-2.590306886 1.628680906 0.25021615
-3.387343959 2.310518744 -0.074864288
-2.796035972 2.225504526 -0.259231636
-2.899794992 2.142762934 -0.428855037
-2.583650135 2.060937081 0.740985553
-3.36836036 2.496079434 0.115639933
-4.589065258 3.671778096 -0.211398637
-2.776255875 2.062191284 -0.284024827
-3.062574437 2.108771669 -0.478247317
-2.602957609 1.659007535 0.252416753
-3.369318915 2.513937955 -0.037713546
-2.890285679 1.848528002 -0.22144292
-2.951781353 2.209307224 -0.438539988
-2.600372069 1.66860026 0.25266128
-3.316012242 2.490037876 -0.037202206
-2.94294514 1.896407864 -0.355067181
-2.848910192 2.319059629 0.136561599
-3.322319276 2.152115196 -0.110431512
-2.987029331 2.097540653 -0.469445231
-2.591755814 1.685611231 0.25282427
-3.207918575 2.629667894 0.002823454
-4.869314457 3.706864067 -0.277146008
-2.562524582 2.110859399 0.244910912
-3.275484702 2.507080946 -0.037004847
-2.919547175 1.919587575 -0.354360866
-2.586608878 2.142377553 0.753018119
-2.863595987 2.375166708 0.138307628
-3.336946468 2.382726069 -0.074864288
-2.962936827 2.47294652 0.143471402
-3.332056473 2.394703059 -0.07491905
-2.559793773 2.148459826 0.246529445
-3.302731055 2.576485362 -0.037578981
-2.776251489 2.337826007 -0.263283262
-2.61744069 1.750758489 0.732214099
-2.573865818 1.730729815 0.253639304
-3.272152197 2.380312036 0.073101671
-4.359322195 3.689895977 -0.205431601
-2.811327385 2.385431533 -0.403529834
-2.696538873 2.289553409 0.39128531
-3.266673319 2.579643357 0.114812755
-3.409329441 2.313902012 -0.114949164
-3.039497104 2.067317406 -0.509094362
-2.581518844 2.045382864 0.703983477
-3.372018655 2.300184024 0.184498271
-3.328189994 2.64597817 -0.038144149
-4.397244233 3.77254401 -0.420283714
-2.592098288 1.773995471 0.48990568
-3.034462243 2.61264775 0.148858082
-3.36879469 2.500354163 -0.076598523
-2.816675018 2.257727646 -0.296466254
-2.709179418 2.343536354 0.396232705
-3.385319792 2.526739067 0.076316917
-4.217852939 3.659933303 -0.200866451
-2.572723055 1.924835343 0.654176107
-3.022893937 2.635157637 0.149080988
-3.36058209 2.526384878 -0.076762823
-4.466426977 3.909200606 -0.649629723
-2.714189107 2.37714188 0.399091224
-3.382513407 2.557110713 0.076605925
-3.420901953 2.399216877 -0.116566596
-2.571797849 1.948870577 0.65696918
-2.950475688 2.604061383 0.14629477
-3.36761332 2.762677913 -0.039077118
-4.20964158 3.725203339 -0.407767096
-2.707732694 2.401004799 0.400300573
-3.371522799 2.581464269 0.076714309
-3.421598717 2.4311627 -0.117096444
-2.57533834 1.976546232 0.660959236
-2.70406201 2.41260923 0.400850306
-3.386554991 2.609493591 0.077238137
-3.421441591 2.446881847 -0.117347424
-2.826126517 2.024044812 -0.352544682
-2.557059549 2.297595595 0.253592059
-3.393885171 2.439801094 0.036258062
-4.146057778 3.733606496 -0.200686728
-2.594210778 1.867594525 0.619433125
-2.556656566 2.311449172 0.254254177
-3.392054836 2.454304942 0.036318781
-4.132362296 3.74429566 -0.200578888
-4.487902644 4.076300397 -0.663555812
-2.575866926 2.172788862 0.720287136
-2.570000154 2.01138963 0.540624066
-3.269338617 2.975935337 0.164349434
-3.366820303 2.849539788 -0.039570518
-4.135060907 3.773873565 -0.406103024
-2.576104034 2.187169946 0.593073961
-2.570386949 2.02662072 0.419427473
-2.558302626 1.872600144 0.259263062
-3.363363892 3.080443637 0.169550356
-3.406023515 2.900701466 -0.040135682
-2.825373076 2.236714733 -0.198126519
-2.834746248 2.083318451 -0.356782483
-2.578845949 2.202525582 0.724885634
-2.575392814 2.041215332 0.544382916
-2.585755798 1.902957155 0.380670819
-2.565351342 2.362581889 0.257270501
-3.423133957 2.932196723 0.124325336
-3.391250676 2.699144545 -0.079135989
-2.823233548 2.086703301 -0.226595756
-2.579130344 2.055987676 0.671532979
-2.590177615 1.916390254 0.502542402
-2.573132788 2.38229355 0.387877087
-2.616636868 2.252933072 0.221594404
-3.402740655 2.723240088 0.07873738
-3.431979584 2.551189519 -0.119299499
-4.316372243 4.012784734 -0.427518764
-2.595196504 1.929426082 0.626662392
-2.568225146 2.392424506 0.518486361
-2.560134684 2.21737226 0.340862817
-2.595956787 2.088870091 0.182205661
-3.431710968 2.56410506 0.037160178
-3.866338321 3.612786533 -0.190334266
-4.277674276 3.718439521 -0.465489678
-2.587398043 2.425408539 0.658190113
-2.575741215 2.243333132 0.470868611
-2.610499537 2.112291112 0.306433603
-3.418338562 2.56993311 0.193303262
-3.443804222 3.235092939 0.003216205
-4.193737872 3.664638297 -0.252218243
-2.822192864 2.293789647 -0.332957934
-2.574854139 2.254980297 0.600679693
-2.585930729 2.10399603 0.427180517
-2.574599175 1.945876335 0.263908767
-3.440673536 3.249693439 0.175940078
-3.434000333 3.016620832 -0.041005857
-2.837127587 2.317692348 -0.201420391
-2.836535871 2.152416422 -0.361121165
-2.5821805 2.274791856 0.735545688
-2.581962683 2.111708539 0.552554355
-2.579981916 1.960420686 0.384203197
-2.617032206 2.485441003 0.266245917
-3.435435392 3.035323635 0.126448438
-3.444485194 2.82889777 -0.081381371
-2.778993228 2.120683004 -0.225629595
-2.578317431 2.120829816 0.679712704
-2.577751035 1.969091285 0.505932774
-2.574389392 2.457860168 0.393704037
-2.657134609 2.359733842 0.228062923
-3.405283125 2.812040223 0.079785043
-3.446366364 2.64491712 -0.121195791
-4.296789913 4.119245487 -0.431787441
-2.573861865 1.975582511 0.628755052
-2.562615637 2.461692088 0.524916272
-2.562921344 2.289524882 0.345869635
-2.592802886 2.152681833 0.184280528
-3.422063475 2.639651718 0.037489796
-4.365304695 4.206296154 -0.218048667
-4.128116618 3.70111969 -0.45534008
-2.592305256 2.505812372 0.669138651
-2.574190338 2.312369121 0.47701394
-2.567853521 2.143788868 0.30525221
-3.397456304 2.636765065 0.194386949
-3.418914389 3.311889678 0.003240029
-4.137773727 3.729204689 -0.252263483
-2.823302616 2.367523627 -0.337334138
-2.575045887 2.325900834 0.608976838
-2.579182827 2.165097524 0.431501884
-2.579809664 2.012728215 0.267576449
-3.424067376 3.334858151 0.177686107
-3.439197022 3.115938327 -0.041633818
-2.831018228 2.386034851 -0.203561405
-2.830598901 2.217145385 -0.36465268
-2.593305053 2.356219769 0.748923054
-2.57716501 2.174605597 0.558601247
-2.585550095 2.027956553 0.389619472
-2.583587162 2.530176229 0.266760872
-3.423937861 3.119980971 0.12777193
-3.439590974 2.914364249 -0.08231238
-2.828450325 2.227897412 -0.232392681
-2.586574447 2.19500107 0.690685442
-2.577503173 2.03225884 0.511942948
-2.577465711 2.537504122 0.400080692
-2.563959275 2.348314541 0.223131488
-3.430246274 2.922299038 0.08141073
-3.431247746 2.717952873 -0.122116057
-4.026692262 3.980625335 -0.410733441
-2.587117782 2.049580146 0.639598927
-2.580779938 2.556405963 0.536607067
-2.553112068 2.352164404 0.349374389
-2.591328583 2.219480819 0.186573802
-3.424197963 2.726088008 0.037966875
-4.310194524 4.282622627 -0.218551909
-3.979387188 3.679429529 -0.445108645
-2.594648664 2.586233656 0.67990474
-2.575018044 2.568638337 0.268305824
-3.431426451 2.74908487 0.038140358
-4.036951501 4.035815467 -0.205323761
-4.323080319 3.739613594 -0.523323814
-2.575101075 2.398693368 0.617619749
-2.963141275 2.569626187 0.214475228
-3.387944647 2.731356906 0.037750022
-4.012573167 4.036133503 -0.204712679
-4.313089094 3.754166709 -0.523506145
-2.574197696 2.412644399 0.619175432
-2.557103342 2.582264115 0.268085137
-3.419731539 2.986534402 0.082024881
-3.420912803 2.778762202 -0.122952667
-3.914156684 3.686515971 -0.44158902
-2.587984331 2.6275166 0.68446664
-3.281418786 2.678289948 0.191451957
-3.293146888 3.350578557 0.003197827
-4.340259007 4.109157402 -0.27067655
-3.168710114 3.23445665 -0.495572518
-2.575866289 2.631036662 0.543913821
-3.289398068 2.701659514 0.192400192
-3.340151748 3.419323958 0.003253643
-4.349331738 4.143124381 -0.272033777
-3.145596066 3.230630596 -0.493505369
-2.580597557 2.288251108 0.571348771
-2.651449139 2.186839838 0.40751678
-3.29880466 2.726375848 0.193438728
-3.25580827 3.353502392 0.003181491
-4.336600212 4.156448612 -0.272033777
-4.494816829 4.010346203 -0.551495771
-2.585596062 2.483626267 0.629201171
-2.631736898 2.184182701 0.405515106
-3.412096032 3.286129532 0.130667061
-3.440480664 3.082268634 -0.0843387
-2.805726767 2.338358987 -0.235742029
-3.11468859 3.238407421 -0.491764615
-2.701348905 2.810492815 0.431194406
-3.381179954 3.276409041 0.12986745
-3.43991989 3.100842534 -0.084557762
-3.141449174 3.281876732 -0.329556265
-2.584940624 2.333722496 0.709039917
-2.617622387 2.20191582 0.279720478
-3.376774366 3.060388865 0.08233195
-3.497564211 2.949522338 -0.127637637
-3.778632301 3.692461652 -0.433894984
-2.587474175 2.185654133 0.528278258
-3.400001889 2.880960508 0.201430937
-3.191027886 3.368520613 0.003158348
-4.291681905 4.215652866 -0.272440937
-4.500380984 4.115605741 -0.558333616
-2.583767934 2.196141683 0.528894689
-2.597632898 2.755264111 0.279341177
-3.375918333 2.879003971 0.038487324
-3.088877372 3.283544458 -0.162152578
-3.750236508 3.709970046 -0.433240167
-2.609217364 2.228209088 0.664901336
-2.616921775 2.242777574 0.281839573
-3.413112143 3.151022022 0.083921516
-3.832687723 3.292970812 -0.1409675
-3.198970837 3.425142809 -0.339974711
-2.591349351 2.397878475 0.718815616
-2.686383507 2.882135934 0.435812007
-2.945860397 3.165279973 0.160745931
-3.397437766 3.396170561 -0.043096069
-4.081878528 3.798072035 -0.306549872
-4.474000849 3.873220627 -0.600153315
-2.581413402 2.404689223 0.58442311
-2.582325487 2.790034098 0.280444698
-3.432311365 2.982095342 0.039441487
-3.227351159 3.494642741 -0.17110314
-3.686446083 3.714618003 -0.42980241
-2.594524239 2.257284249 0.666423281
-2.582332902 2.422926569 0.453744252
-3.34337554 2.922256152 0.200708483
-3.071331504 3.343428207 0.00309028
-3.361136715 3.404458719 -0.216658857
-4.49975109 4.243595452 -0.566265504
-2.603010744 2.845036951 0.715669971
-2.553176835 2.41211221 0.320519374
-3.161038672 3.217219447 0.124408052
-3.425220636 3.243450331 -0.086127704
-4.173036855 3.677817421 -0.359023508
-3.035468739 3.335662327 -0.493614148
-2.60154617 2.861011257 0.717677216
-2.581800649 2.452388112 0.45628624
-2.579339572 2.838778754 0.282946036
-3.418197639 3.025488836 0.039597621
-3.199078115 3.528640641 -0.171318819
-3.293220408 3.380046795 -0.387567006
-2.919803356 3.231686756 -0.639180969
-2.579538935 2.462755254 0.590796815
-2.591430472 2.302739131 0.41104913
-3.428250613 3.052551932 0.207481538
-3.131508438 3.472552452 0.003182852
-3.316450426 3.421620543 -0.215799284
-4.516519929 4.338640801 -0.573376874
-2.584236308 2.481138778 0.729389361
-2.599837521 2.322074688 0.543688977
-2.626900016 2.924440318 0.434822511
-2.873754255 3.204088762 0.160002944
-3.225379703 3.345115486 -0.041687641
-4.279222031 4.131242018 -0.327026779
-4.527761663 4.067952026 -0.617306339
-2.593936424 2.327633207 0.675364752
-2.583865762 2.894344615 0.57314078
-2.674175657 2.785662098 0.388627683
-3.012710664 3.142479957 0.120079138
-3.420318039 3.319358632 -0.087022205
-4.109817702 3.712695231 -0.357477661
-2.859671511 3.221014075 -0.471419465
-2.602128286 2.933173304 0.727713387
-2.582346058 2.7048749 0.51552465
-2.610463792 2.944846198 0.290302948
-3.389223932 3.306892553 0.085547196
-3.534615346 3.210681757 -0.133214978
-2.971771302 3.363417195 -0.325576971
-3.053025294 3.215144542 -0.527358239
-2.57643582 2.713511287 0.656685527
-2.592064261 2.538899057 0.464929003
-2.520400556 2.658673651 0.235107819
-3.403882135 3.107228466 0.039979285
-2.993482568 3.405412577 -0.163087165
-3.136261227 3.31932702 -0.375043742
-2.859457225 3.264186356 -0.636857759
-2.591373888 2.551174475 0.602400289
-2.590944742 2.374423492 0.416700903
-2.513600843 2.667846316 0.23523591
-3.421582203 3.142684762 0.040300229
-2.917272004 3.339319537 -0.159492572
-3.102866488 3.304231542 -0.372260772
-2.836436106 3.258019139 -0.633953701
-2.596151082 2.571609588 0.605342016
-2.590218328 2.388419822 0.417760613
-2.793448134 3.212351375 0.158256915
-3.235837531 3.460663623 -0.04250399
-3.979707733 3.961814811 -0.308745796
-4.536348924 4.203191891 -0.627194511
-2.598997987 2.405156187 0.686208626
-2.600021882 3.003950091 0.586877445
-2.672486201 2.870777638 0.394735968
-3.395757501 3.395601905 0.086757431
-3.44080912 3.203410748 -0.131151361
-2.882086538 3.343726872 -0.320223043
-3.00456715 3.242898377 -0.525822823
-2.579088877 2.783941044 0.666019795
-2.591514271 2.601435789 0.47052135
-2.49842696 2.701124457 0.236132542
-3.381094925 3.401749154 0.086649055
-3.417833649 3.201650948 -0.1306494
-2.848455963 3.325284562 -0.317618439
-2.965680361 3.22069052 -0.520744092
-2.579875805 2.801984593 0.668439803
-2.589801817 2.615717986 0.471665253
-2.834055447 2.866515486 0.220426812
-3.413339192 3.21322356 0.040664544
-2.878666488 3.377910077 -0.159636354
-3.077570162 3.358961016 -0.374143354
-2.803286645 3.300876918 -0.635550927
-2.597630097 2.637010547 0.613186644
-2.596800556 2.454130007 0.423647884
-3.390304041 3.210540981 0.211048683
-2.783625285 3.283968222 0.00293032
-3.152059234 3.458247206 -0.211908561
-3.313324721 3.384286632 -0.433611135
-2.774640305 3.28753478 -0.631340038
-2.596429336 2.652017028 0.614820943
-2.596455488 2.468928156 0.424825343
-3.38622422 3.226440152 0.211409917
-2.843761438 3.375856697 0.003004514
-3.149482897 3.476785751 -0.212451455
-3.343206088 3.435831401 -0.438899081
-2.761997993 3.292999456 -0.63075925
-2.598600791 2.670576224 0.617272363
-2.589586163 2.477568916 0.424943092
-2.465760343 2.732321524 0.236196587
-3.046742045 3.141534789 0.079062516
-4.359684948 4.185550781 -0.168603269
-2.761390702 3.304882221 -0.312409202
-2.89009824 3.216952692 -0.514366215
-2.602224259 3.121112329 0.754172366
-2.594777113 2.890441669 0.535462821
-2.573161867 3.088665245 0.296556309
-2.818916076 3.146301158 0.116522261
-3.218978221 3.342137214 -0.084722055
-4.27997559 4.137078407 -0.384207961
-2.756342261 3.324086071 -0.472616237
-2.592643951 2.504750537 0.698574444
-2.589199007 3.124598889 0.599445084
-2.672465527 2.997313368 0.404148763
-2.653890569 3.207564472 0.154764858
-3.233037035 3.632400959 -0.043625351
-3.242912962 3.390806774 -0.257965232
-4.477461124 4.357662864 -0.633652137
-2.594726556 2.525988751 0.564801599
-2.593682024 3.149627653 0.451313894
-3.380682813 3.30125251 0.213577305
-2.783710304 3.388092854 0.002984775
-2.983534237 3.375943296 -0.204036635
-3.149944991 3.317718134 -0.418841373
-2.71198273 3.315158556 -0.628581178
-2.590766481 2.728735741 0.623319255
-2.587350067 2.536970605 0.429652903
-3.412581611 3.352916269 0.216241365
-2.776465058 3.400490135 0.002988178
-2.93954167 3.346801469 -0.201729354
-3.160254925 3.349095131 -0.421576511
-2.699926856 3.321160044 -0.628145587
-2.59050755 2.745281511 0.625280425
-2.59439988 2.559542277 0.432125542
-2.599017082 2.970349472 0.25329649
-2.968740568 3.156581518 0.0782858
-4.42781028 4.383443046 -0.173818079
-2.772512847 3.423585115 -0.319571892
-2.820846184 3.238442855 -0.510822899
-2.596962005 2.98370414 0.545295323
-2.604637981 2.782236095 0.34778215
-3.401860211 3.383655206 0.216873531
-2.722907839 3.376981983 0.002952783
-2.924842283 3.371566717 -0.202136528
-3.148472542 3.377893049 -0.422761749
-2.646050472 3.296000871 -0.620304655
-2.589085375 2.777723535 0.629039274
-2.596914172 2.593658607 0.435186925
-2.584528315 3.221068701 0.304648891
-2.750073881 3.185548594 0.116081097
-3.270512498 3.523195758 -0.087770661
-3.955776448 3.967124285 -0.361599919
-2.622111696 3.283376939 -0.45988692
-2.589583737 3.012353267 0.547616923
-2.580080279 2.790122573 0.346782492
-3.239541974 3.261991906 0.207797622
-2.983686171 3.747226513 0.003260449
-2.907349699 3.393242751 -0.202362728
-2.96580533 3.221319869 -0.400880615
-2.597148643 2.623172636 0.575743164
-2.593940866 3.270817921 0.461758416
-2.582454764 3.025550285 0.25528189
-2.911528835 3.172884575 0.077798093
-3.395517971 3.445020788 -0.13494396
-2.861335663 3.623290616 -0.334910193
-2.832331725 3.333352754 -0.520271665
-2.58726958 3.045240313 0.701282737
-2.583827778 2.826718891 0.490730126
-2.585940273 2.633255413 0.301807963
-3.457422115 4.393979679 0.207851511
-2.897328618 3.420695668 -0.04021642
-3.145277293 3.454604279 -0.256867284
-3.187824476 3.258643145 -0.462323891
-2.590512835 2.64480779 0.717408557
-2.595877401 3.314835681 0.621949832
-2.593827738 3.076037925 0.404949849
-2.760016521 3.042506624 0.224631144
-3.241508908 3.325316882 0.040282881
-2.843504943 3.642557929 -0.166214471
-2.784331282 3.314027953 -0.355481229
-2.920603599 3.233338102 -0.56040025
-2.589428267 3.085956966 0.70698702
-2.592358199 2.871231943 0.495687025
-2.592634933 2.672680687 0.304497593
-3.448176483 4.437995517 0.208928835
-2.893608158 3.459117563 -0.040458634
-3.089969939 3.435974196 -0.254067475
-3.204411416 3.316060218 -0.46767159
-2.590163173 2.681138669 0.581445123
-2.593127572 3.353511882 0.468904685
-2.573227001 3.090758467 0.258099849
-2.85370008 3.187516752 0.077292325
-3.215790596 3.343773525 -0.129422394
-2.789275191 3.62256886 -0.331654409
-2.76333262 3.334218372 -0.515074855
-2.595618168 3.134279714 0.561000073
-2.591228098 2.907771909 0.355415717
-3.073261832 3.210655031 0.200889086
-2.885003729 3.763417019 0.003227777
-2.759187412 3.342943531 -0.196300444
-2.909313473 3.279089397 -0.401336472
-3.095193978 3.244659731 -0.621037547
-2.610492529 2.942265449 0.651592539
-2.595518497 2.722736613 0.446019503
-2.586356095 3.390571861 0.314580694
-2.64886225 3.225043011 0.115116053
-3.259859954 3.689310136 -0.089888258
-3.203133615 3.374019796 -0.300281224
-2.790189825 3.675314999 -0.505037914
-2.598319221 2.735483468 0.731106122
-2.590166473 3.414161916 0.633056084
-2.587266486 3.165538688 0.411458677
-2.683346294 3.050746204 0.222174062
-3.196302344 3.381187868 0.040360948
-2.77584337 3.670601846 -0.165531506
-2.781627509 3.415854483 -0.361783795
-2.84125724 3.244181489 -0.554659727
-2.606419731 3.204783818 0.724964199
-2.60289108 2.973350118 0.506363351
-2.575234728 2.737543137 0.307350211
-3.457216798 4.593362762 0.213721123
-2.806830559 3.46192899 -0.039983176
-2.870226053 3.291810957 -0.240123416
-3.195347117 3.409832635 -0.473927396
-2.597369288 2.772470502 0.592540825
-2.610503078 3.485174397 0.481658023
-2.567502012 3.18190105 0.262390847
-2.776288022 3.198447547 0.076515609
-3.273205465 3.509672643 -0.133884264
-2.704757846 3.626551712 -0.328181604
-2.7429553 3.414922705 -0.520980305
-2.595600734 3.233986317 0.571651961
-2.579524868 2.985608676 0.360050396
-2.982873906 3.21348864 0.198179861
-2.783417643 3.748617994 0.003178087
-2.968421476 3.710957672 -0.21521115
-2.850879874 3.314270681 -0.400242399
-3.023534539 3.268487227 -0.616647605
-2.601724508 3.024593505 0.66090797
-2.600634807 2.813273845 0.454261693
-2.577897006 3.489201932 0.320024774
-3.123254837 3.923828858 0.138332278
-2.890012113 3.373648091 -0.08110754
-3.130725242 3.400730998 -0.29834893
-2.69697588 3.668027466 -0.498292457
-2.615914134 2.840006356 0.748228033
-2.607196031 3.548358699 0.650446097
-2.619950419 3.307807451 0.424676632
-2.60902368 3.059636909 0.219880803
-3.254877409 3.550706452 0.041783513
-2.667839992 3.642605959 -0.162404199
-2.858557491 3.622420297 -0.378972612
-2.791159772 3.28738244 -0.554659727
-2.599021449 3.297763981 0.736891385
-2.592275454 3.054520712 0.513353784
-2.581973241 2.830475669 0.313299977
-3.446391121 4.728224146 0.217510384
-2.872486193 3.395133885 -0.081198817
-3.225275903 3.546866927 -0.309427497
-2.654564943 3.657154455 -0.494593333
-2.61891998 2.878514998 0.754125556
-2.604542776 3.590715241 0.655268589
-2.643738689 3.380249848 0.431886411
-2.610783615 3.100027624 0.221628054
-2.691479125 3.719302621 0.003124994
-2.83910167 3.639977655 -0.209058386
-2.76582774 3.296367589 -0.393951576
-2.918821527 3.234016727 -0.60334063
-2.604996299 3.104661699 0.671367453
-2.611806822 2.895857793 0.462386104
-3.407976021 4.736303027 0.216915992
-2.816905437 3.634458367 -0.208244052
-2.632075037 3.673373672 -0.494593333
-2.623519569 2.919357092 0.760593852
-2.598011585 3.628345842 0.65921418
-2.647882111 3.428694594 0.435991978
-2.659306768 3.722727847 0.003114103
-2.628573348 3.687046128 -0.328471014
-2.836596504 3.691135875 -0.55369658
-2.588905148 3.371478201 0.58599105
-2.574477625 3.622227733 0.327823088
-3.048564435 3.429809298 0.039805801
-2.623790595 3.700219352 -0.163159063
-2.747399526 3.336290038 -0.395683836
-2.86331474 3.231828668 -0.597990398
-2.603905802 3.162014772 0.678558336
-2.614007609 2.952488272 0.46756691
-2.994916672 4.244100255 0.193103146
-2.859378186 3.486728873 -0.082330634
-2.763060164 3.637123473 -0.375125579
-2.749014537 3.361234403 -0.558486704
-2.604556676 3.432927803 0.756251392
-2.600040576 3.702706531 0.500458163
-2.806470857 3.70913323 0.128295809
-2.852718031 3.503700389 -0.248412992
-2.766635985 3.669513288 -0.546610063
-2.589357363 3.437098226 0.593228901
-2.568972642 3.685859545 0.331427977
-2.747190518 3.655624478 -0.041023798
-2.612716014 3.761621884 -0.332233229
-2.708396418 3.35334778 -0.554404619
-2.61178771 3.486683115 0.764548595
-2.597654927 3.747999065 0.50441609
-2.734004584 3.659814453 0.126007274
-2.654410138 3.846785526 -0.339034179
-2.596986614 3.77169816 0.676458101
-2.507037937 3.373860856 0.269755955
-2.71815425 3.663578452 -0.040925119
-2.955602175 3.699082531 -0.260325844
-2.608174281 3.810256912 -0.505364251
-2.604631575 3.034434954 0.474160645
-2.645984942 3.874450623 0.174416942
-2.663323765 3.906423936 -0.1700607
-2.600385378 3.823994979 -0.506125878
-2.592143396 3.814563407 0.681280535
-2.666540976 3.633825979 0.45361591
-2.985794803 3.777739794 0.086992251
-2.658856921 3.633449306 -0.203900915
-2.895172469 3.673745054 -0.428232025
-2.784282809 3.281995746 -0.596069817
-2.595247383 3.293137971 0.694574402
-2.5975223 3.063994105 0.476280066
-2.683032365 3.413221062 0.237407921
-2.942230155 4.372918636 -0.189579402
-2.77908505 3.294215223 -0.437098878
-2.607919198 3.092174293 0.630913461
-2.597984569 3.874081831 0.515960078
-2.597147876 3.586229476 0.284166004
-2.971786153 3.807812237 0.087263199
-2.927033098 3.48644024 -0.126996246
-2.815502232 4.217191706 -0.367829631
-2.663392388 3.695050425 -0.541767544
-2.595425644 3.60364424 0.612211132
-2.597532294 3.344102411 0.38640441
-2.688311185 3.217433452 0.18951035
-2.657554002 3.699156795 -0.040862322
-2.827804407 3.391594361 -0.285015967
-2.866658137 4.328867602 -0.568249237
-2.601914625 3.931884184 0.696478585
-2.598018786 3.633092449 0.449510342
-2.683192462 4.061326744 0.180955258
-2.624508701 3.680444354 -0.204715249
-2.805579735 3.651352109 -0.421576511
-2.765268472 3.34186323 -0.600734119
-2.593110022 3.374804242 0.705033885
-2.595797242 3.139261197 0.482991579
-2.673461165 4.073716695 0.181141015
-2.918565093 4.459912635 -0.386640766
-2.820549635 3.696512095 -0.598032359
-2.600343082 3.40949393 0.549449998
-2.587107386 3.96590006 0.349305198
-2.626905731 4.032905294 0.003276105
-2.804401724 3.698825239 -0.597011867
-2.598857045 3.429313736 0.551356454
-2.587504575 3.171785271 0.334735446
-2.66851176 4.121080284 0.182515544
-2.624574897 3.749513182 -0.04105968
-2.71881579 3.602342032 -0.248138512
-2.768172068 3.406580437 -0.445170896
-2.598531603 3.198704153 0.642779673
-2.605903344 4.044907589 0.53223155
-2.576896459 3.699757163 0.289353634
-2.802705266 3.73076734 0.08430084
-2.61391483 3.762419234 -0.207474958
-2.70683017 3.613772336 -0.413371097
-2.761996644 3.422567611 -0.609102432
-2.604730837 3.477436354 0.719742522
-2.600090817 3.224216784 0.49111599
-2.569508655 3.713390062 0.28980195
-2.765528602 3.704895397 0.083524125
-2.90408661 3.613944697 -0.129338724
-2.843788731 4.464267832 -0.383963802
-2.611590817 3.792284016 -0.547673053
-2.598867273 3.776881285 0.632012749
-2.616577219 3.522220803 0.400399284
-3.386468209 5.336876093 0.234970641
-2.61824748 3.81473292 -0.041508224
-2.692081181 3.636039926 -0.248742367
-2.978613098 3.735278717 -0.484521912
-2.612095542 3.276566406 0.653567159
-2.598277435 4.115786868 0.538388352
-2.486386513 3.370970329 0.229053869
-2.992703956 3.766656542 0.041731467
-2.773712276 4.408669291 -0.18735074
-2.773788996 4.076143152 -0.404919556
-2.71915699 3.703033939 -0.590888681
-2.593486763 3.533544125 0.561651487
-2.584611631 4.126100891 0.359163449
-2.616581477 3.861153327 0.128654257
-2.680869902 3.664252485 -0.082896543
-2.846738025 3.612593547 -0.296867486
-2.718188124 4.361647165 -0.562482964
-2.60166704 4.177725985 0.72702078
-2.593502071 3.846984296 0.466934001
-2.612008093 3.587153387 0.242649673
-2.643648851 4.255726461 0.003410199
-2.947694799 4.384901563 -0.239279341
-2.632368493 3.629072495 -0.410453598
-2.972157183 3.800841027 -0.668229227
-2.609589084 3.597639048 0.736248896
-2.598020656 3.324754157 0.500300113
-2.578641846 4.17327255 0.361885503
-2.643408129 3.952750644 0.131163374
-2.658921333 3.681443539 -0.082914797
-2.809810117 3.611090778 -0.29532164
-2.679921704 4.359612588 -0.56008942
-2.604462241 4.239972586 0.73505817
-2.601262215 3.910044265 0.472641743
-2.598690747 3.615274762 0.243468701
-2.981775348 3.848947067 0.042234572
-2.717315033 4.43896546 -0.187206959
-2.928363166 4.418925668 -0.435368321
-2.657926331 3.714345375 -0.587444368
-2.606419 3.64005378 0.741642044
-2.586670952 3.352425942 0.502066317
-2.577899013 4.229893235 0.365416811
-2.636172673 3.994760158 0.13201812
-2.636282506 3.697689076 -0.082914797
-2.785776243 3.625889563 -0.295128402
-2.635083121 4.346223098 -0.556281517
-2.610691208 4.309177664 0.744264644
-2.597424493 3.956706672 0.476346796
-2.580503421 3.636852307 0.243850915
-2.9483817 3.854462467 0.042095782
-2.669366316 4.421334387 -0.185769116
-2.908830163 4.448488741 -0.43651425
-2.6362299 3.732204455 -0.587699476
-2.601232179 3.684400547 0.577920216
-2.562912865 3.367526321 0.346064442
-3.238009334 5.39096353 0.233781856
-2.678751137 4.115856135 -0.044055954
-2.630176962 3.741035993 -0.251432384
-2.752623446 3.631240518 -0.4621221
-2.604300344 3.436543281 0.672522272
-2.599977697 4.351519665 0.560706656
-2.579145662 3.983125908 0.304532195
-2.687266507 3.840412967 0.084680164
-2.752735913 3.649453488 -0.127526087
-2.633118254 4.427670962 -0.373690019
-2.732841923 4.241226165 -0.600113577
-2.600838034 4.039735445 0.662329698
-2.592093221 3.722597477 0.413939819
-3.29053348 4.383854003 0.247758706
-2.624483064 4.434578585 0.003507536
-2.836132011 4.421123691 -0.237876859
-2.602615412 3.755152129 -0.418294351
-2.79077515 3.731320689 -0.645319288
-2.605351008 3.759068405 0.75765811
-2.608660862 3.490342233 0.516666714
-2.582524059 4.387543784 0.3755693
-2.653630514 4.15860006 0.13607131
-2.625249832 3.804348687 -0.084393469
-2.702424593 3.631368465 -0.292165515
-2.608287134 4.454759174 -0.564985287
-2.609228102 4.459718422 0.763262193
-2.591345412 4.082608397 0.486660813
-2.586025827 3.765726148 0.249802498
-2.778187764 3.749789721 0.040482389
-2.638479311 4.525647433 -0.188429122
-2.81362279 4.450463786 -0.432421647
-2.612254633 3.821330968 -0.595353488
-2.600368423 3.805765165 0.590630132
-2.573049857 3.490681567 0.354622327
-2.947881669 5.082979124 0.218439114
-2.672283663 4.247022121 -0.045015834
-2.806702625 4.125187781 -0.274324799
-2.667749272 3.633739527 -0.457177984
-2.608013391 4.521060568 0.771007339
-2.596344374 4.146499718 0.492368555
-2.575755516 3.800533752 0.251058338
-2.750404542 3.760308871 0.040412994
-2.851208 4.960230421 -0.205791061
-2.7830979 4.462570209 -0.431930564
-2.720268877 3.731668095 -0.639557544
-2.612407928 3.586304711 0.526086392
-2.58049381 4.509793628 0.383294061
-2.660932425 4.285113642 0.139131875
-2.674853606 3.979837807 -0.087551606
-2.648284275 3.651332737 -0.291134951
-2.613416486 3.89958989 -0.603772882
-2.604424204 3.888047367 0.599654157
-2.593370105 3.586906604 0.361957633
-2.87877294 5.070789263 0.216767383
-2.657744189 4.311444939 -0.045437466
-2.776373217 4.162474918 -0.275093372
-2.625541025 4.273551074 -0.596570318
-2.605218028 4.244088267 0.68650129
-2.603637429 3.915892555 0.429116086
-3.172921856 4.421849778 0.245997688
-2.822587117 5.011835238 0.003915262
-2.732720389 4.468223905 -0.237198245
-2.647849094 3.700996283 -0.461516695
-2.598064747 4.264719384 0.502582407
-2.595473708 3.932694452 0.257665126
-2.684319276 3.766091582 0.04011807
-2.789636361 4.993973321 -0.20575512
-2.910632833 4.42785647 -0.485122989
-2.609264479 3.671867463 0.702573145
-2.60352096 4.677610009 0.592150194
-2.585380725 4.274698985 0.320607389
-2.648180494 4.043151247 0.087317387
-2.619869676 3.704427376 -0.126577941
-2.694257702 4.471442923 -0.428738347
-2.646144763 3.749486106 -0.635579173
-2.606880779 3.696558948 0.536330226
-2.59005493 4.692033678 0.395359352
-3.451109867 5.752661957 0.185040445
-2.777515827 4.272722407 -0.093046395
-2.630384832 3.746245377 -0.295450446
-2.610475864 4.027441431 -0.61729497
-2.597330969 4.009121014 0.612109918
-2.567191229 3.667908649 0.366114341
-3.449816465 5.790703536 0.185922772
-2.634271729 4.42844479 -0.233352777
-2.63193284 4.087969515 -0.625331644
-2.607025879 4.051269005 0.617320973
-2.602680191 4.784053188 0.401759849
-3.444250133 5.821908481 0.186584503
-2.619656836 4.434785475 -0.233262282
-2.58676569 4.38959525 -0.606019027
-2.606070417 4.426200114 0.70807823
-2.6592279 4.163745138 0.450835422
-3.102379156 5.748794621 0.242846337
-2.627772769 4.479853706 -0.235207644
-2.601371398 4.445505228 -0.612633175
-2.60178909 4.09817257 0.622023661
-2.599193433 4.848275178 0.40580614
-3.44926151 5.912871214 0.188817904
-2.809428162 4.44458055 -0.289092327
-2.605740642 4.491654223 0.522609627
-2.975166327 4.368751459 0.238908564
-2.714840889 4.319903807 -0.093155926
-2.779433695 4.432810443 -0.479014496
-2.609748852 4.527240083 0.720368886
-2.681017032 4.28428206 0.461195277
-3.156626282 5.980368046 0.251390737
-2.873197742 4.253522385 -0.143198443
-2.76424168 4.438780779 -0.478740971
-2.609015571 4.194378262 0.632954199
-2.613737707 4.985047544 0.415222958
-2.872205154 5.029448455 0.159756259
-2.852671489 5.002945627 -0.260814008
-2.633418109 4.260586759 -0.644211533
-2.608150983 3.89807874 0.556111457
-2.561466862 4.511942199 0.332968022
-3.460991551 6.661573361 0.005109852
-2.807076999 4.214141309 -0.326818315
-2.607063637 3.917986021 0.7340109
-2.619049102 5.065167108 0.630740027
-2.545797047 4.15596558 0.266510604
-2.791182113 4.960399005 -0.051062204
-2.716529083 4.452982486 -0.477555762
-2.596316096 4.637883339 0.534926331
-2.538743205 4.173140247 0.267111211
-2.78619238 4.987271182 -0.051250592
-2.695630611 4.449371751 -0.476279358
-2.600925736 4.679744503 0.538831627
-2.542451108 4.208257599 0.268858461
-3.452063887 6.796569304 0.005188811
-2.926384508 4.482120137 -0.345497337
-2.616772943 4.012160036 0.747109974
-2.609534667 5.162683657 0.63986526
-2.584471298 4.685469277 0.343407298
-3.457936987 5.76891977 0.121510977
-2.825980436 4.354321135 -0.144815874
-2.825392077 4.359910672 -0.526899921
-2.597956876 4.353269643 0.649604161
-2.597634039 4.018555087 0.391298944
-2.969314989 5.930611042 0.246561301
-3.462027973 6.333221134 -0.064751755
-2.65607068 4.470661086 -0.285908247
-2.609079831 4.797886231 0.549646294
-2.57682858 4.355227135 0.276721089
-2.632306725 4.105398877 0.042303963
-3.604076341 7.268246263 -0.291809936
-2.615919539 4.092686041 0.757589246
-2.627936639 5.320154678 0.656356614
-2.576308982 4.774046612 0.348146583
-3.460368498 5.89535131 0.123497935
-2.773982732 4.361589853 -0.144202364
-2.786211551 4.387409698 -0.527101683
-2.606362576 4.110190229 0.577070119
-2.588982015 4.832949309 0.351861174
-2.633795175 4.163727594 0.042737672
-3.561603631 7.294713765 -0.291989645
-2.611838325 4.142091059 0.763753558
-2.594373547 4.474826199 0.472009525
-2.788961274 4.438081823 0.236921792
-3.443591045 6.487400345 -0.065891053
-2.614888454 4.532972776 -0.479105662
-2.612085433 4.533556429 0.670448441
-2.597481413 4.15681936 0.400834882
-3.46395709 6.571056254 0.204892785
-2.841124881 4.948434696 -0.104182025
-2.749917663 4.4196253 -0.527908908
-2.61087187 4.202328266 0.586607517
-2.623396252 5.485435805 0.448549674
-3.470196793 6.632137867 0.206464426
-2.825434815 4.956259037 -0.104163771
-2.73268454 4.422116774 -0.527202593
-2.607875103 4.226375396 0.588844659
-2.61852509 5.518686648 0.45060961
-3.457204872 6.656946778 0.206905589
-2.807260893 4.959683395 -0.10405424
-2.711298902 4.417760633 -0.525689112
-2.601641832 4.245363519 0.590375365
-2.628340874 5.583540194 0.455244438
-3.455085018 6.703063452 0.208008499
-2.793011319 4.970015968 -0.104090748
-2.681680694 4.399722367 -0.52256118
-2.604609629 4.279622592 0.594025437
-2.618794091 5.607842398 0.456568674
-3.464551282 6.772367113 0.209828303
-2.77434025 4.972449533 -0.103962963
-2.643956031 4.367926642 -0.517818914
-2.605850334 4.311389484 0.597322347
-2.609961023 5.633948795 0.458040074
-3.465026705 6.824856369 0.211124212
-2.764885697 4.991432967 -0.104182025
-2.632593321 4.379428456 -0.518222498
-2.60998688 4.348312663 0.601325692
-2.610570393 5.680895687 0.461203531
-3.458015479 6.863129026 0.211978973
-2.751968087 5.004272632 -0.104273302
-2.62322475 4.39431845 -0.519029723
-2.607820119 4.375065631 0.603916052
-2.603056951 5.710657218 0.46296917
-3.435155288 6.870129105 0.211868689
-2.743788768 5.025855393 -0.104547126
-2.660964692 4.485202142 -0.336608705
-2.611889836 4.801929739 0.700443881
-2.606789359 4.40891587 0.418847196
-2.853903654 6.317498581 0.257706147
-3.459097055 6.975067517 -0.069847208
-2.639593586 4.480447535 -0.335642543
-2.615524825 4.843959067 0.705400724
-2.609903218 4.445255497 0.421536797
-2.840228929 6.33899216 0.258226228
-3.461523554 7.034095933 -0.070331637
-2.631378183 4.497999628 -0.336351063
-2.617989127 4.884306871 0.710103411
-2.611814494 4.479933604 0.424063408
-2.825231789 6.357720897 0.258634877
-3.453967611 7.073436534 -0.070618708
-2.62458375 4.51813215 -0.337252793
-2.620696091 4.925590984 0.714933175
-2.612538909 4.512939709 0.42642703
-2.806116308 6.367273237 0.25867204
-3.450126613 7.120895602 -0.070986513
-2.619186199 4.540857979 -0.338347789
-2.617175103 4.547962095 0.622166577
-2.613473734 5.974684162 0.481067137
-2.582383893 5.368974647 0.164333329
-3.439700551 6.537034215 -0.134868903
-2.611454272 4.9861402 0.513630704
-2.58345736 4.53204537 0.235792955
-3.449165264 7.966365504 0.005908969
-2.626533272 6.098980156 0.734525722
-2.576155665 5.433889345 0.385932918
-3.455471175 6.659681604 0.135546075
-2.810836872 4.974579964 -0.159400639
-2.61330337 5.060493569 0.729803818
