Total points in the dominant plane: 4576
2.361484165 2.244654339 -0.179131845
2.446719326 2.498600142 -0.354663568
2.486560297 2.034143687 -0.471472186
2.408195646 2.12514896 0.81259125
2.424756579 2.303364147 0.680909743
2.423315105 2.474027489 0.540144526
2.395291942 1.960194285 0.342360895
2.401348184 2.114190833 0.205327074
2.402352045 2.273323218 0.059752984
2.388582939 2.42761064 -0.095010144
2.38134351 1.940604566 -0.222839365
2.375470151 2.082005519 -0.375705814
2.423316426 1.967219505 -0.576073198
2.428373023 2.471087125 0.805594034
2.427351394 1.973815867 0.580637913
2.394439641 2.097022477 0.438776339
2.392929271 2.253996913 0.299981402
2.401203336 2.428981352 0.154380714
2.361445406 1.916051268 0.002069943
2.576872242 2.24933531 -0.154904973
2.384701032 2.236448025 -0.299315672
2.429690852 2.449404735 -0.47781614
2.419208886 1.953709618 0.820428135
2.418462566 2.106989776 0.685589661
2.402767763 2.253408711 0.545690345
2.403086653 2.420912282 0.404455396
2.398398239 1.936557509 0.227401511
2.384708954 2.07151444 0.087129757
2.401769681 2.243272132 -0.060004612
2.381153683 2.388956092 -0.21770711
2.410577458 1.937234189 -0.33846895
2.383337827 2.06078109 -0.492546586
2.453192916 2.289476266 0.814464268
2.433365305 2.442636255 0.668135484
2.384916186 1.915325544 0.451848876
2.395889096 2.071138339 0.318732774
2.402923667 2.234180299 0.179420977
2.417276091 2.414909259 0.029639665
2.668875301 2.136638495 -0.122971391
2.692104718 2.318760351 -0.291800729
2.456347152 2.274119698 -0.430537405
2.405345007 2.064321282 -0.615900986
2.410144143 1.923246148 0.691323976
2.425238221 2.086266296 0.561441059
2.403131108 2.223856178 0.41955458
2.415896405 2.40178317 0.278579437
2.380552378 1.89691377 0.113157404
2.362186071 2.025794043 -0.027917353
2.358928509 2.174330447 -0.176386947
2.448706184 2.425071426 -0.349517661
2.410475421 1.91094108 -0.451434266
2.427987567 2.077245054 0.808421607
2.416560132 2.22606531 0.668939462
2.429383632 2.405282244 0.533209706
2.391590994 1.896664756 0.337633353
2.394025484 2.043417536 0.201996754
2.39126622 2.194293745 0.058633069
2.380688065 2.346479084 -0.093253275
2.375607567 1.876032382 -0.219583595
2.35339994 1.999671053 -0.367320066
2.409151298 1.895159877 -0.565727858
2.45351287 2.421232346 0.801517375
2.421818447 1.908357511 0.572244029
2.399894066 2.037606251 0.433996642
2.411045514 2.202250388 0.297982142
2.400383855 2.354785327 0.151987573
2.351252749 1.848698658 0.002035909
2.651488893 2.24374501 -0.157302749
2.52776376 2.298765258 -0.31280906
2.46697687 2.411846936 -0.477816139
2.456237979 2.075447895 0.813572342
2.417127481 2.199325255 0.665348343
2.413015414 2.359933295 0.526428964
2.389097864 1.870923922 0.335654389
2.398888495 2.022257611 0.201356302
2.39357271 2.169507717 0.058362121
2.375703118 2.312999779 -0.092500334
2.372130007 1.849767468 -0.218208933
2.36714664 1.986470009 -0.36755628
2.399367554 2.165016034 -0.536578824
2.460642511 2.226798491 0.80550116
2.44381571 2.379000457 0.660906215
2.395277637 1.863936453 0.448341648
2.388483859 2.001551184 0.313625847
2.397606601 2.161622236 0.176527097
2.410225329 2.335102311 0.02911054
2.691070473 2.087485672 -0.122504091
2.38920963 1.994859123 -0.255622349
2.535224881 2.275928018 -0.438191388
2.357207979 1.819429128 -0.549574581
2.465899639 2.389059822 0.798346645
2.423723147 1.873958952 0.568594497
2.388865898 1.990699017 0.428670699
2.410451747 2.161351265 0.295437619
2.408283873 2.319426185 0.151129639
2.33491414 1.801325351 0.00200732
2.668185026 2.216055054 -0.157076549
2.589672247 2.311878506 -0.31782348
2.477636364 2.378064651 -0.475621169
2.449744006 2.02532642 -0.617617603
2.466902877 2.375402793 0.796308285
2.427901783 1.865316198 0.568229539
2.387332423 1.977042122 0.427305067
2.414097395 2.151295749 0.295074091
2.411779936 2.308572865 0.150903871
2.348365799 1.800237458 0.002014127
2.678053001 2.210402205 -0.157257509
2.616865344 2.321767122 -0.320285093
2.477753231 2.36361515 -0.474249338
2.452912098 2.015308583 -0.616854662
2.466438444 2.36041539 0.793816991
2.425798002 1.851892563 0.566404801
2.385737564 1.963413532 0.425939435
2.410248926 2.134635544 0.29380183
2.410166035 2.292900177 0.150362035
2.355468772 1.794236147 0.002015489
2.679415057 2.197740979 -0.156940829
2.63144548 2.320313908 -0.321196806
2.449770378 2.322607982 -0.467527246
2.477332695 2.02267354 -0.621432418
2.468022313 2.347467172 0.792005129
2.422851324 1.837905194 0.564397555
2.37334605 1.94103348 0.422661926
2.408563728 2.119993292 0.292802201
2.413559707 2.282063352 0.150136267
2.337839087 1.769499328 0.001995749
2.686145001 2.18951023 -0.156940829
2.644543234 2.317480462 -0.321926187
2.443907828 2.302853687 -0.465057914
2.448461381 1.986612854 -0.612658376
2.456101952 2.321818397 0.785890169
2.416701169 1.821586214 0.561660448
2.372371095 1.928119776 0.421432877
2.410559099 2.108659789 0.292256938
2.406717904 2.261649981 0.149278347
2.359240842 1.774339899 0.002009363
2.681205693 2.171827308 -0.156262215
2.661403332 2.317858492 -0.323111425
2.450961427 2.295345057 -0.465057914
2.447667076 1.973546367 -0.610941703
2.44830652 2.300266593 0.781134076
2.408900115 1.804143574 0.558558327
2.38058731 1.92269973 0.421842569
2.411756114 2.096680855 0.291620807
2.409264857 2.250164448 0.149007415
2.366275429 1.768290717 0.002010724
2.683187097 2.159832758 -0.155990761
2.662478084 2.304468768 -0.322382044
2.453641544 2.283765668 -0.464234804
2.40698022 1.928585354 -0.599306518
2.450368787 2.288091068 0.779548653
2.401803509 1.787353002 0.555638713
2.38029426 1.91042651 0.420750046
2.409134483 2.081458924 0.290530309
2.413960279 2.240723361 0.148871963
2.362054929 1.753869002 0.002002556
2.693701409 2.154710791 -0.156216961
2.520808641 2.168357103 -0.304421286
2.461363567 2.276899816 -0.464371984
2.40751011 1.916911773 -0.597971374
2.464761422 2.126082817 0.921635387
2.449523594 2.273274326 0.777057356
2.4033228 1.777053247 0.554726344
2.380722806 1.898791095 0.419794107
2.407197942 2.066921931 0.28953068
2.416417981 2.229242613 0.14860103
2.356963429 1.738896185 0.001993707
2.698735107 2.145193261 -0.156126481
2.366219171 2.022784234 -0.285001765
2.471983401 2.272689705 -0.465057913
2.348715141 1.858352384 -0.581949168
2.456662606 2.10598655 0.916186748
2.45075866 2.260465761 0.775245553
2.409555785 1.770253711 0.554908852
2.3818789 1.887786224 0.418974722
2.405194988 2.052416142 0.28853105
2.405573923 2.205615864 0.147517343
2.360674284 1.730474524 0.001992346
2.687273722 2.122661584 -0.155085948
2.38911051 2.029700037 -0.287007551
2.506731988 2.290485621 -0.470270966
2.406108125 1.891788964 -0.594728763
2.453590919 2.090327905 0.912645159
2.454810218 2.250303625 0.774339623
2.413387342 1.761693563 0.554543893
2.378320414 1.873114742 0.417335982
2.409961339 2.043739398 0.288349287
2.410114146 2.196206733 0.147381877
2.366780479 1.723812628 0.001993026
2.685915007 2.10823915 -0.154633534
2.393804434 2.021075909 -0.286825191
2.532079575 2.299432377 -0.473700587
2.394882941 1.87110229 -0.590532477
2.451180454 2.075329836 0.909375964
2.46170259 2.242761689 0.774339623
2.411617426 1.749085762 0.552901606
2.380935441 1.863367116 0.416789735
2.407082196 2.02863485 0.28725879
2.410917241 2.18343757 0.147020658
2.376918757 1.720060867 0.00199711
2.694733581 2.101832269 -0.154769254
2.422116936 2.032284824 -0.289469163
2.53323967 2.286343771 -0.472603116
2.344783752 1.820403141 -0.576799149
2.453854823 2.064702621 0.908013819
2.458463432 2.226046089 0.771168894
2.413781585 1.739379616 0.552171689
2.377256852 1.848756125 0.415150965
2.407186983 2.016124965 0.286531763
2.416861932 2.175362378 0.146975493
2.372441455 1.705755376 0.001988942
2.698010984 2.09110707 -0.154588294
2.409219866 2.00890082 -0.287189882
2.483464588 2.227632552 -0.462039833
2.39297661 1.710277114 -0.542859165
2.462168905 1.90544427 0.914893971
2.451244981 2.046571358 0.775073762
2.43158057 2.185172472 0.633511145
2.391281721 1.712234227 0.434458832
2.392368902 1.847557669 0.304213053
2.38900144 1.98704388 0.169920294
2.387376386 2.135151234 0.02778339
2.685941216 1.916986135 -0.118693812
2.386281089 1.836017326 -0.247273497
2.432220688 2.014244868 -0.406172159
2.381276875 2.122376698 -0.562279451
2.447266946 1.738481058 0.91754523
2.438450707 1.875155745 0.778252954
2.427485811 2.012626157 0.642006327
2.4172613 2.155676971 0.505162264
2.386787278 1.697963298 0.324000489
2.388821973 1.832616459 0.193222637
2.369037623 1.956504186 0.055508139
2.374937512 2.108352676 -0.088596192
2.415646833 1.711012242 -0.214736113
2.452867602 1.873059892 -0.367083853
2.468991841 2.029792181 -0.530682375
2.445478976 1.721013923 -0.667712438
2.434932259 1.719713178 0.786498729
2.416980641 1.846004301 0.650055997
2.388265425 1.966726661 0.512514219
2.403776019 2.128201143 0.380670819
2.401607155 1.695862542 0.216881157
2.361229637 1.798013942 0.081863367
2.362626043 1.937529889 -0.055787677
2.564452801 2.261053204 -0.220669996
2.387152622 1.677427239 -0.3193206
2.39453394 1.814739955 -0.469687728
2.455846282 2.003675565 -0.647555436
2.452974865 2.013070807 0.898478743
2.44982596 2.1641117 0.760071283
2.399538916 1.684768716 0.544142763
2.381608899 1.805678719 0.412010038
2.402439211 1.962492855 0.283078478
2.411847608 2.117855638 0.145079037
2.379271545 1.666759557 0.001977371
2.698760725 2.039171642 -0.153185826
2.363384006 1.922008251 -0.278893302
2.37494538 2.078267905 -0.437072132
2.425082345 1.688650049 -0.545400111
2.452178085 1.708230559 0.913452955
2.433936597 1.836284994 0.771385307
2.427664999 1.975356015 0.637218169
2.412465673 2.111861019 0.500076735
2.390086111 1.667393763 0.322351348
2.391235666 1.799750588 0.192069838
2.366749015 1.918248964 0.055038495
2.344502948 2.043061581 -0.086755668
2.424738819 1.684155037 -0.214157307
2.434240279 1.823613423 -0.361768908
2.410024411 1.944418843 -0.514139522
2.357973646 2.050459778 -0.670813588
2.456085926 2.147792149 0.890254901
2.421283654 1.677950137 0.660476962
2.378323062 1.781542693 0.521510956
2.377853434 1.919643052 0.39159273
2.427129758 2.10726762 0.262849234
2.37569526 1.643903543 0.10739923
2.354020642 1.757764562 -0.026356421
2.700187926 2.171082064 -0.19049571
2.364379421 2.044839358 -0.317027855
2.440957208 1.680068924 -0.434881192
2.385699113 1.77138682 -0.577371412
2.446042001 1.821974498 0.896285997
2.440033105 1.962130664 0.759977936
2.436509067 2.109840088 0.624569675
2.381653468 1.639877167 0.427152107
2.393230844 1.778873275 0.300107484
2.38231035 1.908398444 0.166917204
2.393700621 2.062776333 0.027410401
2.676276825 1.836685992 -0.116752727
2.392439471 1.771616937 -0.244490526
2.435541963 1.942541346 -0.400686804
2.395284475 2.057012274 -0.556550731
2.393344807 1.630009918 -0.64657401
2.443463186 1.670157107 0.780886355
2.411206911 1.783704698 0.641068094
2.394248551 1.910784118 0.507447885
2.40222947 2.061973006 0.375372292
2.392755559 1.635191092 0.213791267
2.369224171 1.747343174 0.081201621
2.463297973 1.957670034 -0.057448895
2.638279191 2.255167978 -0.224019331
2.359171493 1.604278994 -0.312248749
2.308989166 1.694781726 -0.447755575
2.415584737 1.909864557 -0.629139685
2.443262428 1.796700366 0.891211078
2.442133119 1.939265768 0.756911632
2.444932371 2.091021619 0.623428244
2.377760785 1.615780567 0.424667815
2.390464027 1.754148363 0.298405176
2.375963723 1.879497048 0.165661364
2.396413111 2.03962445 0.027297636
2.359006019 1.597745051 -0.102482153
2.390391662 1.747492907 -0.243180922
2.41624788 1.903013373 -0.395584139
2.429641307 2.060749905 -0.561585057
2.357130633 1.584261921 -0.634152461
2.448495472 2.088689602 0.878146216
2.427134427 1.638284522 0.656539005
2.392051285 1.74641509 0.519782419
2.384085264 1.876820715 0.388796557
2.416299338 2.046406133 0.258937054
2.369172076 1.596754214 0.106210445
2.394818078 1.742866575 -0.026571723
2.714840489 2.128541857 -0.189672241
2.374846243 2.003481752 -0.31511076
2.384959998 1.598753037 -0.421377373
2.361927182 1.709174974 -0.566499169
2.450625823 1.640988523 0.901468427
2.425744515 1.760987872 0.75838583
2.41424893 1.891656659 0.624449899
2.414675241 2.036521174 0.492679562
2.383224944 1.59820618 0.317403953
2.395669138 1.734944036 0.189828272
2.369340443 1.849138748 0.054297904
2.389367634 2.005988039 -0.087034536
2.458645834 1.641453327 -0.214446703
2.456117098 1.770369139 -0.360115386
2.401001083 1.865232204 -0.504803408
2.3683353 1.984106064 -0.663257449
2.464471289 1.923259855 0.88512957
2.453734801 2.062600253 0.74535001
2.40824887 1.604116294 0.537026207
2.376974449 1.711950345 0.403816277
2.39875653 1.863234546 0.277171539
2.380302904 1.98885068 0.140202438
2.366156235 1.572444385 0.001933807
2.693616244 1.933299335 -0.150154677
2.378329094 1.83906243 -0.275246422
2.454159607 2.04344331 -0.442285184
2.358299741 1.557628623 -0.521623938
2.446211792 1.617547075 0.773743336
2.417613604 1.731703131 0.635633579
2.390498036 1.848486792 0.500583872
2.395408277 1.993124352 0.369485023
2.385943609 1.577395758 0.210995645
2.381105428 1.700339126 0.080705316
2.666528003 2.053243464 -0.061446769
2.694076916 2.232261093 -0.225822818
2.399281447 1.578282252 -0.314315897
2.416860014 1.717541225 -0.463509649
2.351261468 1.801091331 -0.605119074
2.446306286 1.74176071 0.882470951
2.434622758 1.873133486 0.74558979
2.449511029 2.030715886 0.616579493
2.376639426 1.562272052 0.420137624
2.395190116 1.701714984 0.295701509
2.378360933 1.822786533 0.163859515
2.374966084 1.959352925 0.026707793
2.354814839 1.54275146 -0.101259989
2.37624062 1.681831995 -0.239088348
2.414402598 1.842261698 -0.390609029
2.470855295 2.03136916 -0.563841809
2.377063374 1.545259357 -0.63306283
2.459428878 2.033672252 0.870775685
2.443808345 1.595527028 0.654351276
2.389603434 1.689050983 0.513559518
2.399185904 1.829804274 0.386635859
2.416591408 1.983805652 0.255676918
2.369946335 1.544944904 0.105170262
2.388572788 1.682889447 -0.026212888
2.699463365 2.05041084 -0.186378369
2.411460229 1.971856044 -0.315917956
2.371844401 1.53776066 -0.414843272
2.428870384 1.701467582 -0.576226944
2.453836309 1.589168961 0.893576178
2.42233102 1.702389418 0.749065395
2.425029655 1.840774792 0.619861294
2.394376376 1.957344075 0.482354428
2.384944574 1.546858107 0.314435494
2.39912 1.681951804 0.188035021
2.357548686 1.782428077 0.053394748
2.653236169 2.159007911 -0.095428442
2.55978417 1.652778256 -0.221030602
2.388518308 1.66657313 -0.34641472
2.412777076 1.815726497 -0.501363804
2.456176581 1.994383895 -0.679209202
2.437653356 1.842872287 0.865242063
2.419389835 1.971194332 0.725646145
2.397855821 1.544624162 0.529362241
2.373699845 1.654892234 0.398899996
2.398407652 1.804664923 0.273900018
2.38801628 1.933872448 0.138892969
2.369807906 1.522989114 0.001917471
2.673729671 1.857555369 -0.147440222
2.394303502 1.793409256 -0.273878853
2.446673162 1.974454299 -0.435425911
2.380257466 1.520212178 -0.521260945
2.389227868 1.649287531 -0.676610322
2.440594862 1.560561099 0.764304341
2.4125499 1.672684626 0.627481749
2.390934993 1.790900343 0.494863854
2.413331121 1.946172069 0.367601098
2.39053311 1.52825679 0.209303559
2.357568279 1.629512648 0.079050951
2.657636383 1.982211007 -0.060534013
2.674312578 2.147559755 -0.221378502
2.42236997 1.540759971 -0.314207117
2.440479274 1.678586725 -0.463046311
2.358154336 1.749634224 -0.599914577
2.437975354 1.680076889 0.870065616
2.436575716 1.815824409 0.737570164
2.440576096 1.960928425 0.606686791
2.380286293 1.512896746 0.416630396
2.390677024 1.643915478 0.291996485
2.386799272 1.771805912 0.162549077
2.368033792 1.893343046 0.026300106
2.368071545 1.500031681 -0.10082863
2.405047942 1.64743735 -0.239415728
2.425626882 1.792630716 -0.387930128
2.413917275 1.923269886 -0.544051757
2.414534222 1.517443684 -0.636767496
2.464738484 1.975195212 0.861825749
2.429213183 1.533373456 0.644068936
2.388404199 1.633846033 0.507855234
2.390271533 1.7656775 0.380789298
2.410858891 1.917960678 0.251927727
2.372230479 1.49508951 0.104241525
2.376927795 1.620702721 -0.025809199
2.6952084 1.982728136 -0.183962862
2.399316193 1.901267785 -0.310469375
2.375033267 1.488586865 -0.411358399
2.444933398 1.65740073 -0.573938066
2.450364601 1.534088057 0.883637818
2.425713748 1.649766929 0.742197746
2.418242397 1.777821843 0.611083081
2.407854803 1.907501545 0.479118193
2.395759985 1.502172891 0.312786352
2.386649497 1.619180911 0.185088973
2.374931753 1.738967213 0.053177988
2.686041294 2.11805552 -0.095428442
2.343696823 1.462812717 -0.200410718
2.363599434 1.595844024 -0.339210039
2.371782386 1.728534987 -0.487277794
2.405031602 1.8923863 -0.656960697
2.447002716 1.791621951 0.85870373
2.425643212 1.915139944 0.718625194
2.405409104 1.497786886 0.525895161
2.377453414 1.603882418 0.395349377
2.407296021 1.754173902 0.271809862
2.393036933 1.877896458 0.137493213
2.3843962 1.481182205 0.001910664
2.686985531 1.80629208 -0.146625888
2.395736046 1.73776083 -0.270961384
2.404104168 1.879945935 -0.422667687
2.393254636 1.477323513 -0.51908299
2.347835535 1.568090213 -0.657998414
2.436280079 1.505657732 0.755630673
2.416809074 1.621316489 0.622047177
2.402951443 1.743008598 0.49175869
2.407688536 1.881409629 0.362302545
2.380606589 1.470963436 0.20643437
2.359851085 1.578154154 0.078306489
2.369189589 1.711146443 -0.053359745
2.407656315 1.873411129 -0.196902555
2.47789967 1.523203336 -0.318341416
2.377929652 1.582387777 -0.446519969
2.391080485 1.717829462 -0.601515974
2.43472178 1.623322148 0.859915779
2.420801145 1.746958699 0.724597213
2.430086261 1.891900344 0.596794148
2.373710151 1.458084557 0.411515663
2.390760018 1.590517522 0.288992381
2.386129948 1.715170743 0.160692616
2.369130151 1.835362621 0.02599651
2.349890135 1.438486529 -0.099103225
2.453297045 1.62576731 -0.241707585
2.423801821 1.734434016 -0.383337739
2.389345293 1.844492374 -0.532073607
2.447536946 1.486307171 -0.63938259
2.423119788 1.88153792 0.837081836
2.422458925 1.477638144 0.636193077
2.391008065 1.582341173 0.503188071
2.383996959 1.705146377 0.375578242
2.406840957 1.855199015 0.248504573
2.381229008 1.450208922 0.103647132
2.357267961 1.554870547 -0.025333743
2.693586781 1.918560585 -0.181821847
2.404523644 1.846064559 -0.307442355
2.433132345 1.473506515 -0.417456906
2.353501892 1.543265764 -0.546852938
2.431837257 1.472154871 0.7500183
2.428360691 1.596854976 0.621211104
2.39316747 1.70251801 0.486528977
2.410717237 1.848294299 0.360183123
2.388925039 1.44589232 0.205992968
2.371768062 1.554723766 0.078223773
2.361177485 1.672508803 -0.052830347
2.389103153 1.823922437 -0.194004086
2.410059137 1.451107962 -0.307896863
2.36508449 1.542623001 -0.441423058
2.436423891 1.716629199 -0.608922327
2.43911854 1.594021475 0.856250569
2.439949998 1.726849805 0.725540695
2.434133042 1.859323355 0.593560001
2.380248118 1.432095699 0.410346606
2.392796073 1.560294164 0.287490345
2.380595997 1.678178754 0.159272982
2.368407733 1.800167798 0.025805678
2.337317005 1.401381054 -0.098024843
2.462305735 1.599318779 -0.241134635
2.429920192 1.705215688 -0.381806943
2.387378839 1.808153107 -0.527907302
2.493827073 1.483173979 -0.647881555
2.436299461 1.715805896 0.843720015
2.448852255 1.86132642 0.71522797
2.403872863 1.436112849 0.519691029
2.368333835 1.535064396 0.389067467
2.399217203 1.681559251 0.267356948
2.387342042 1.803423137 0.135235523
2.400947647 1.430898838 0.001902496
2.337951761 1.509930714 -0.12604126
2.367695558 1.651775266 -0.264305871
2.389233772 1.798441786 -0.414162194
2.460658026 1.457071922 -0.527794866
2.377121044 1.525134451 -0.65822539
2.420643334 1.83244551 0.828395115
2.416911737 1.433859267 0.630067447
2.390374163 1.54007783 0.499039526
2.381956367 1.659884056 0.372019459
2.415083496 1.8147465 0.247037523
2.387668543 1.414257794 0.103164186
2.366074105 1.519342406 -0.025226092
2.69395852 1.86942274 -0.180284704
2.427793242 1.817014533 -0.307543265
2.491100274 1.46713603 -0.424281428
2.365643597 1.510043156 -0.545327002
2.439720863 1.436315155 0.746957005
2.413181879 1.54479122 0.612432231
2.392797863 1.658410466 0.482279764
2.407763337 1.799547953 0.356415274
2.388439758 1.405844096 0.204448015
2.366230929 1.509907628 0.077424162
2.379878026 1.642271843 -0.052793836
2.408103293 1.792084046 -0.193746445
2.371925407 1.388775983 -0.300825011
2.372993542 1.506599289 -0.439415186
2.448420432 1.680502436 -0.606720413
2.448375315 1.430224326 0.866684169
2.405650972 1.530352452 0.721349472
2.417574179 1.665558965 0.597716262
2.413693102 1.794426111 0.469101245
2.396958848 1.402378348 0.307179312
2.393062932 1.51847517 0.181886742
2.36697246 1.624005203 0.051859377
2.693499809 1.993044222 -0.093476375
2.346955986 1.366643161 -0.197010244
2.416477121 1.52577093 -0.339918679
2.464423017 1.682782187 -0.495467353
2.416327504 1.784038861 -0.644786983
2.398459785 1.645499418 0.823560115
2.428465135 1.799243844 0.702771493
2.406011919 1.397616 0.516406456
2.3802904 1.501657193 0.387974972
2.380193735 1.625037653 0.262994901
2.388377462 1.758590706 0.13406152
2.393234367 1.386788143 0.001882756
2.340235433 1.471025722 -0.125181686
2.387787021 1.6225956 -0.26430587
2.409526124 1.767814956 -0.413887833
2.515852321 1.448354177 -0.535780755
2.439433497 1.406074009 0.742875221
2.417356351 1.516279857 0.609923949
2.394904397 1.627445535 0.479664908
2.401799711 1.760870925 0.353118393
2.389180432 1.376830739 0.203418047
2.371551436 1.482766132 0.077148438
2.349346307 1.589483644 -0.051789803
2.401120615 1.752781587 -0.191878554
2.360459016 1.353044714 -0.297778706
2.376692086 1.478432734 -0.43756175
2.407696167 1.62015495 -0.592908585
2.446731337 1.525036076 0.847228513
2.436215277 1.646844313 0.713747141
2.423553193 1.770143912 0.581574639
2.382982694 1.364917982 0.405670266
2.405472191 1.495940542 0.285087085
2.382124924 1.603806911 0.157034306
2.372544159 1.724203084 0.025441363
2.375550882 1.35581981 -0.098384303
2.397797489 1.485196949 -0.231639839
2.343214385 1.570368941 -0.362799499
2.376202201 1.720658427 -0.517144311
2.439608479 1.386302458 0.740324143
2.404992883 1.48804077 0.604489377
2.390096709 1.60282943 0.476723181
2.398078919 1.73562063 0.350999
2.398450615 1.362637696 0.203491614
2.381455887 1.468711425 0.077176006
2.329119821 1.555052051 -0.051132617
2.40778231 1.735098438 -0.191556495
2.366985919 1.337557557 -0.297561091
2.38656103 1.464338447 -0.437716215
2.397186934 1.591801598 -0.587904299
2.437244308 1.498437189 0.840743886
2.441423677 1.628629345 0.712331889
2.425609331 1.748924133 0.579481978
2.374084452 1.340542345 0.402747582
2.390010176 1.466065474 0.282183146
2.394415896 1.590817997 0.157198115
2.375766436 1.704366937 0.025363296
2.382954488 1.340728139 -0.098348355
2.355836556 1.439280638 -0.226728759
2.370178856 1.567450852 -0.365478399
2.405943656 1.719790482 -0.521310617
2.430480863 1.476450393 -0.66276488
2.423372582 1.742636842 0.814443754
2.410516382 1.351211627 0.619566303
2.392135212 1.45940642 0.491779502
2.385566325 1.576862023 0.366427083
2.408594843 1.719033231 0.2419843
2.393751722 1.339618794 0.101975401
2.382996129 1.448870142 -0.025019763
2.693152233 1.772554404 -0.177265311
2.378399023 1.690599455 -0.29593976
2.377644528 1.322822877 -0.399306606
2.436435513 1.472348515 -0.553147369
2.450102137 1.36152396 0.856745811
2.427182923 1.471805801 0.718160924
2.411848633 1.586336184 0.587741008
2.420259328 1.719859588 0.463091072
2.385702462 1.327863303 0.302012006
2.384984981 1.442462736 0.178876648
2.374535905 1.555271875 0.051281354
2.694870848 1.905884586 -0.092082036
2.349587737 1.301431357 -0.19483974
2.489524355 1.498103337 -0.345587945
2.374371491 1.54759536 -0.470571119
2.454879811 1.732302747 -0.644996909
2.425998101 1.588870742 0.821108218
2.441900669 1.729229975 0.695750601
2.390719076 1.320901572 0.506917697
2.368689535 1.424163196 0.381010259
2.403694893 1.566481966 0.261813508
2.384742364 1.678151656 0.131803831
2.399691898 1.32252631 0.001865059
2.35500193 1.410678454 -0.124322098
2.44714482 1.587202741 -0.267041009
2.44287742 1.712821572 -0.413201902
2.419887464 1.326409398 0.728078965
2.408229169 1.439435456 0.599681904
2.39122583 1.550947051 0.472147182
2.401647499 1.682676816 0.347702118
2.389334899 1.309391485 0.200990276
2.370212317 1.412055968 0.07610067
2.359418711 1.523481109 -0.05127866
2.453757175 1.711663299 -0.193102342
2.370640499 1.292053876 -0.295493942
2.469088151 1.46332271 -0.448682279
2.364436799 1.518314899 -0.574092471
2.419520781 1.436870549 0.826928841
2.41712273 1.559379156 0.698179601
2.427999917 1.694654709 0.573774655
2.370041978 1.290720194 0.398655812
2.395097324 1.419088529 0.28018043
2.393334435 1.537710296 0.155560061
2.379454038 1.652324405 0.025129093
2.361956099 1.281616919 -0.096658891
2.36476141 1.395377314 -0.225500978
2.377231841 1.520222828 -0.362927082
2.443379069 1.690527642 -0.523740996
2.418622635 1.306481343 0.725272779
2.415331209 1.423638634 0.599263839
2.395711524 1.533054955 0.471166597
2.393141418 1.654918067 0.344993981
2.387671496 1.289493266 0.200181022
2.385727203 1.40153676 0.076321253
2.380527875 1.516496025 -0.051534233
2.487228205 1.712420358 -0.194905844
2.359257417 1.267135825 -0.293100399
2.511288123 1.467586718 -0.454705894
2.375363782 1.504827044 -0.574492777
2.455860534 1.565704644 0.824649809
2.410824177 1.663182228 0.681029326
2.401550369 1.288674958 0.50582282
2.379146389 1.390988539 0.379917766
2.409281908 1.528331829 0.260359511
2.400212414 1.64537178 0.131532912
2.409568858 1.289675576 0.001860294
2.342786141 1.364577895 -0.122783911
2.514436281 1.587354052 -0.272237788
2.419542435 1.652546546 -0.40579391
2.444352115 1.300028768 0.846222791
2.423692294 1.409336389 0.70933109
2.407500948 1.520740726 0.579760839
2.405005058 1.643246772 0.454306985
2.38605501 1.271107745 0.299043548
2.403362333 1.393812782 0.178300241
2.379909875 1.496927827 0.05079365
2.359170057 1.604150198 -0.079588775
2.329964823 1.235073576 -0.191294561
2.355837456 1.359226923 -0.323501503
2.368170467 1.482170695 -0.463855702
2.438613232 1.654436841 -0.63261327
2.418395863 1.650552933 0.79891299
2.41275883 1.275684434 0.61190925
2.389691427 1.378604811 0.48417377
2.378992375 1.489938929 0.359690834
2.398068197 1.624194227 0.236849569
2.379951385 1.256213128 0.100043629
2.385759379 1.37151244 -0.02468784
2.374903791 1.480865427 -0.153878817
2.388654108 1.611137207 -0.292206454
2.405887542 1.262235597 -0.398725789
2.548547129 1.455936052 -0.570313985
2.430456146 1.393384513 0.823263632
2.4184942 1.50823482 0.691811082
2.431742857 1.642376002 0.568638106
2.375546646 1.246857682 0.396317641
2.398445861 1.371808927 0.278077578
2.390344523 1.484487054 0.153867422
2.372149255 1.593881153 0.024790799
2.364511088 1.236436989 -0.095975918
2.36770078 1.348581019 -0.223782099
2.441611548 1.509131101 -0.369177851
2.439561603 1.633126751 -0.517491509
2.446032541 1.272181262 0.842715118
2.424765533 1.380255359 0.705897266
2.416396069 1.495424282 0.578563799
2.402788254 1.60949464 0.451070751
2.386193383 1.243123367 0.297614316
2.393524937 1.358823942 0.176635082
2.383371966 1.468666027 0.05057689
2.376329838 1.584032329 -0.079672431
2.3509737 1.218625834 -0.192090416
2.371706214 1.339440129 -0.32397393
2.401895666 1.472687374 -0.467786687
2.444825376 1.262039039 0.840961311
2.423924819 1.369947726 0.704425627
2.410119971 1.481333468 0.575970223
2.405247077 1.600473273 0.450608427
2.387347377 1.234427127 0.297284465
2.390727712 1.347554153 0.176122721
2.38360254 1.45873757 0.050486574
2.357008225 1.560729679 -0.078863715
2.342284933 1.205019534 -0.19107751
2.367143124 1.327300899 -0.322792835
2.427467058 1.478138177 -0.471881467
2.449536721 1.254968506 0.84125361
2.392607775 1.342579648 0.694124157
2.414653281 1.47393233 0.575970223
2.40684876 1.590907288 0.449991996
2.389354732 1.226189524 0.297064584
2.393108976 1.339238464 0.17599463
2.381231499 1.44726359 0.05034207
2.36846644 1.557885784 -0.079086808
2.357518436 1.203724016 -0.192018071
2.363395461 1.315685439 -0.321729846
2.414263479 1.459963853 -0.468441834
2.423903994 1.350379953 0.815369295
2.423527194 1.470377432 0.688037154
2.428747199 1.597306594 0.56331124
2.369512252 1.206836868 0.392810414
2.383790994 1.324872302 0.274472689
2.390433949 1.444198934 0.152720778
2.383999042 1.559724007 0.024712732
2.359008309 1.196927493 -0.095149157
2.354423426 1.303015786 -0.220999144
2.475247385 1.488254552 -0.371474031
2.390116233 1.557894662 -0.50290941
2.432233434 1.345258998 0.816779005
2.393067195 1.44187131 0.678130562
2.422951528 1.582867685 0.560838121
2.377618245 1.201792965 0.393541079
2.381746223 1.314187832 0.273771738
2.387147562 1.432235007 0.152229368
2.382903692 1.548588374 0.024652013
2.362669427 1.189684581 -0.095149157
2.358409804 1.295786354 -0.220999143
2.484911214 1.483704385 -0.372239444
2.374217637 1.537173838 -0.498569478
2.431302048 1.457239393 0.802582857
2.446838762 1.590151505 0.67853803
2.404573717 1.206012797 0.49925373
2.361915736 1.29477429 0.371314311
2.396671446 1.429101569 0.254634336
2.404439485 1.552469211 0.129365538
2.395961099 1.19850232 0.001823537
2.347126012 1.281663275 -0.121110004
2.365461224 1.40350494 -0.251815389
2.370105944 1.524563726 -0.390291963
2.48787423 1.471150673 -0.59050652
2.452504524 1.587036486 0.797070371
2.404902562 1.196957745 0.60228322
2.377825655 1.295046612 0.475185154
2.377295417 1.408856378 0.354098457
2.410367922 1.547621855 0.234241449
2.38142579 1.183199245 0.098854844
2.382665049 1.292995162 -0.024320034
2.367531735 1.396768166 -0.15113392
2.435017826 1.55685478 -0.29311456
2.358069788 1.16426589 -0.385947984
2.366360142 1.511735997 -0.602808684
2.43732538 1.202879844 0.717109324
2.399001745 1.297485547 0.582960237
2.385916414 1.405775132 0.458745972
2.402212207 1.533649403 0.337929251
2.385221705 1.176906497 0.196208299
2.380260544 1.28289607 0.074584172
2.395922005 1.4050872 -0.050712751
2.398656357 1.524434775 -0.183440787
2.372169759 1.163678552 -0.289183688
2.408603583 1.29107435 -0.427213489
2.448169383 1.197899072 0.833069058
2.4203309 1.300147158 0.695105247
2.407548841 1.409434437 0.567990055
2.408197358 1.528859799 0.444906468
2.389207611 1.171065219 0.294316034
2.384806305 1.277526524 0.173624987
2.379825167 1.387076445 0.049764047
2.390824988 1.510289079 -0.078891603
2.362242537 1.151820461 -0.190643409
2.374943294 1.265422858 -0.320076322
2.499612182 1.449422667 -0.47974341
2.42041187 1.290637831 0.806065307
2.420782556 1.408414861 0.67978167
2.41291509 1.52402063 0.553038082
2.377980315 1.156527389 0.390618393
2.379664018 1.265817539 0.271268343
2.393283917 1.386440179 0.151246532
2.382669446 1.496959187 0.024409136
2.357256524 1.141974816 -0.094214564
2.336613847 1.237533942 -0.217152126
2.362159272 1.361700087 -0.350680681
2.394178025 1.49848447 -0.497875083
2.445559583 1.294426765 0.813113796
2.393958131 1.382995092 0.671054419
2.411757699 1.512958762 0.551706393
2.369934997 1.143637158 0.388718645
2.379136803 1.256188028 0.270767635
2.39492959 1.377597515 0.151082738
2.394037417 1.493877239 0.024478529
2.353543315 1.131273936 -0.093926994
2.334224236 1.227113115 -0.216579161
2.366325977 1.354446692 -0.350680683
2.376181707 1.477094357 -0.493187955
2.454376118 1.41032267 0.801493163
2.434377239 1.519061981 0.667213925
2.386457732 1.142443656 0.491042297
2.373066098 1.244638059 0.369402433
2.395768262 1.369424368 0.251817181
2.394399506 1.484263294 0.127333616
2.385128208 1.138687559 0.001799033
2.362350723 1.2340803 -0.12070283
2.364925181 1.344957815 -0.249080251
2.423050626 1.496293025 -0.394407515
2.497074353 1.183474131 -0.510008123
2.442786764 1.517696232 0.784698411
2.412424689 1.145790401 0.59878282
2.380296304 1.240136931 0.47103661
2.389025797 1.357021095 0.352064867
2.421477131 1.492533393 0.23261138
2.375711893 1.126321563 0.097740356
2.390085928 1.240626714 -0.024158558
2.360681051 1.334769469 -0.149102697
2.526857398 1.550800523 -0.300682056
2.387156148 1.124458911 -0.387254815
2.412122012 1.479167484 -0.607426314
2.429310439 1.143808708 0.708435655
2.392945972 1.237831609 0.575853516
2.384756973 1.346582519 0.453679666
2.410560414 1.477238594 0.335221113
2.392043581 1.126006999 0.195031197
2.388366187 1.231080152 0.074115441
2.386514152 1.341154826 -0.049982546
2.360710879 1.440010385 -0.178481188
2.380582158 1.113919365 -0.287660521
2.407341495 1.233902636 -0.422888844
2.438606673 1.138073782 0.822546098
2.428330383 1.247403022 0.690690332
2.398044783 1.34522468 0.559810331
2.401336682 1.463194643 0.438588078
2.386047653 1.115523511 0.291347574
2.398147154 1.228408925 0.17292049
2.386621661 1.332799299 0.049384722
2.387446765 1.447370237 -0.077887682
2.361338323 1.098051074 -0.188907006
2.358016989 1.201210422 -0.314761407
2.445667907 1.358614772 -0.464510876
2.440339239 1.244124183 0.804937529
2.431018152 1.355100854 0.675535974
2.415372065 1.464081866 0.547330816
2.367454917 1.097992884 0.385503661
2.391917656 1.216389063 0.270066684
2.393079311 1.328101399 0.149663089
2.387554354 1.439424883 0.024183607
2.369712037 1.094620272 -0.093891052
2.379447883 1.204668819 -0.219034708
2.346884093 1.295935467 -0.344812606
2.433174328 1.461260054 -0.500305462
2.432803645 1.348715914 0.787599143
2.437372488 1.46947229 0.661778397
2.390302604 1.0995396 0.488305191
2.370656985 1.197371919 0.366124923
2.394690772 1.32049214 0.249545263
2.39888712 1.436582333 0.126385381
2.385953377 1.094462679 0.001786781
2.348874989 1.18153767 -0.119074162
2.364323437 1.29702838 -0.246892135
2.49335591 1.487367123 -0.402089898
2.514934116 1.145031658 -0.510008123
2.440964841 1.465152449 0.776801395
2.416400371 1.102575037 0.595501226
2.391115431 1.199504328 0.469480869
2.381724234 1.30496408 0.347997685
2.403837231 1.431249633 0.22878071
2.377249087 1.082706309 0.097108816
2.383789485 1.191302243 -0.023907374
2.342306749 1.277367078 -0.14668719
2.385174669 1.41394245 -0.281208354
2.377982127 1.075882127 -0.383043927
2.477430375 1.467405225 -0.618130772
2.417496511 1.093262612 0.70001704
2.395895031 1.193133393 0.572091093
2.388670439 1.300878723 0.450574504
2.404736136 1.423396431 0.331335517
2.385407136 1.078500263 0.193118409
2.387268957 1.184524809 0.073508837
2.374281221 1.286762957 -0.049307106
2.385960821 1.405655728 -0.178738829
2.35386565 1.057714881 -0.282438258
2.398518092 1.183280166 -0.418100834
2.4330866 1.09036518 0.814946204
2.434143481 1.203562214 0.687011178
2.39857447 1.297558729 0.555221728
2.400506715 1.412657729 0.434427198
2.382929901 1.069836198 0.288928848
2.384485067 1.17559238 0.170614893
2.388298233 1.286078786 0.049005395
2.377449448 1.391891936 -0.076855873
2.376082461 1.060887568 -0.188762302
2.356549436 1.155282606 -0.312163001
2.442740751 1.30836443 -0.460088511
2.442770355 1.198515466 0.79958068
2.425838902 1.303849237 0.668459828
2.412975489 1.412477067 0.541813751
2.369559113 1.055110245 0.383165518
2.382590262 1.165997705 0.266962475
2.388518744 1.278046851 0.148134245
2.374785574 1.382508451 0.023836641
2.35973037 1.046393893 -0.092848611
2.359119447 1.149259494 -0.215515098
2.370864078 1.262113918 -0.345450435
2.496196069 1.447478082 -0.508638074
2.440477164 1.304436599 0.78351265
2.434373294 1.417210632 0.654983944
2.390697614 1.055596359 0.485020617
2.371815788 1.152640068 0.363530242
2.390042753 1.270515678 0.24700074
2.3972905 1.38611509 0.125166227
2.399715038 1.056526492 0.001784739
2.358629596 1.141452283 -0.118666988
2.340804483 1.237798835 -0.242424737
2.361371357 1.359962597 -0.377396558
2.499761107 1.092146453 -0.503474203
2.449796768 1.419797693 0.772589669
2.404425713 1.052855009 0.58850048
2.384396091 1.150698946 0.464640881
2.381288118 1.257622879 0.345074404
2.398721648 1.378810836 0.226254098
2.380757676 1.040511035 0.096588727
2.375647065 1.142032535 -0.023647219
2.372230989 1.246862304 -0.147345955
2.364271144 1.352976136 -0.276264267
2.386037296 1.035733525 -0.381737124
2.426980432 1.052057581 0.808515463
2.422502627 1.161031137 0.679652983
2.394363796 1.25754725 0.550633123
2.397078351 1.371318254 0.43072864
2.384027099 1.035366326 0.287499588
2.382524169 1.13849765 0.16946208
2.3790907 1.243704062 0.048499627
2.386532159 1.358162397 -0.076604893
2.346802455 1.013460175 -0.185434186
2.363373808 1.122868058 -0.311218119
2.437606199 1.267367997 -0.456157525
2.442147112 1.276571004 0.780243513
2.433774106 1.387028814 0.651360278
2.384057018 1.026549054 0.481736046
2.36711023 1.123540444 0.361208672
2.397216934 1.246167839 0.246546373
2.407338307 1.362516199 0.125030776
2.390040755 1.026110684 0.001770444
2.372648156 1.121403185 -0.118847948
2.352982167 1.216659563 -0.242515902
2.384142557 1.344008708 -0.379042778
2.497041046 1.063697408 -0.500933257
2.42974337 1.036544151 0.696955744
2.389120956 1.126395579 0.564566364
2.384506675 1.232971467 0.444691048
2.407925721 1.356320533 0.327685389
2.373158146 1.012159655 0.190322788
2.372344471 1.114288309 0.072295636
2.379139043 1.224045326 -0.048850728
2.366848753 1.326769398 -0.175131854
2.370544674 1.004596604 -0.281785468
2.401889314 1.121469469 -0.41439399
2.436610045 1.140335102 0.790558622
2.425227201 1.246537868 0.661855398
2.40260378 1.347651173 0.53382351
2.369448309 1.003215925 0.380096684
2.380207369 1.111002778 0.264358943
2.387637899 1.22158603 0.146659999
2.395464096 1.3361267 0.023793269
2.376749646 1.002005288 -0.092776721
2.342815386 1.088424593 -0.212159178
2.356568502 1.199365477 -0.340092661
2.452684156 1.362547447 -0.494576742
2.440975119 1.36510078 0.763113249
2.406796775 1.010184534 0.585218886
2.381215435 1.104456891 0.460665161
2.387921791 1.214652029 0.343295027
2.403900246 1.333153383 0.224787034
2.380769272 0.997305883 0.095957187
2.381084354 1.100005776 -0.023530597
2.352770597 1.190936932 -0.144985357
2.382133488 1.315108325 -0.275961564
2.376978864 0.988751806 -0.377816658
2.437533628 1.012504751 0.806761654
2.420654686 1.11481355 0.674256975
2.392386132 1.210057096 0.545845023
2.403125262 1.326271441 0.428108808
2.379440279 0.990273509 0.285080861
2.385196907 1.095155176 0.168437372
2.390743739 1.203467915 0.048355119
2.38342554 1.308407257 -0.075851952
2.327051084 0.962852445 -0.182684863
2.358639273 1.07658775 -0.3083835
2.415299067 1.209073217 -0.448459374
2.440814724 1.228577845 0.773705123
2.433425389 1.3378025 0.645698197
2.404067316 0.991733446 0.482648412
2.372348257 1.081755589 0.359433347
2.391114984 1.196769494 0.244001851
2.394635286 1.307239819 0.123314922
2.392551493 0.984003476 0.001760915
2.351366494 1.067531866 -0.116947834
2.34551475 1.167554295 -0.23987193
2.3687983 1.28788112 -0.373418187
2.472089743 1.008553258 -0.492765871
2.425665534 0.991105977 0.69134337
2.405227058 1.089212329 0.564357331
2.389891094 1.1896555 0.442239627
2.404887017 1.306426559 0.324506285
2.386558016 0.97488394 0.190175638
2.390980148 1.078589458 0.072350786
2.379715415 1.178532736 -0.048485623
2.351807235 1.271325593 -0.172555429
2.368174441 0.961014185 -0.27971832
2.399877158 1.07600612 -0.411150515
2.437188115 1.095352489 0.785201774
2.421416273 1.197986039 0.655722734
2.411767503 1.304566494 0.531350336
2.386391564 0.967495815 0.380388955
2.388797694 1.070698967 0.263457721
2.397137146 1.180406677 0.14611399
2.408632143 1.295435786 0.023723876
2.382572916 0.961689336 -0.09241726
2.373798703 1.058855664 -0.213468798
2.331042899 1.141699605 -0.333841893
2.447252096 1.31081515 -0.489368846
2.44379561 1.317881313 0.757585334
2.42200911 0.973147386 0.585218887
2.379881635 1.059787531 0.457208004
2.38667308 1.168286234 0.340498852
2.402972949 1.284843783 0.222830944
2.386511844 0.956950225 0.095585686
2.384879987 1.057676954 -0.023405004
2.352808287 1.145962664 -0.143887395
2.338791625 1.244758885 -0.268696743
2.394623608 0.953272295 -0.37825225
2.42967179 0.965811 0.799161703
2.411756791 1.066184015 0.667144055
2.395687403 1.16592768 0.542453458
2.39789046 1.275794684 0.423639711
2.384192998 0.949612773 0.283871483
2.388930195 1.052805031 0.167540739
2.381926924 1.15358 0.047813224
2.381126616 1.260005074 -0.075154779
2.332273208 0.923372537 -0.181961352
2.353046132 1.030719317 -0.305548882
2.420229013 1.165462133 -0.446002502
2.437723578 1.180509116 0.766894339
2.433865446 1.289828119 0.640489167
2.376013035 0.937775159 0.47407208
2.370511555 1.03729588 0.356702084
2.383170025 1.147422633 0.241366432
2.397608241 1.261516123 0.122457003
2.388752701 0.939865252 0.001747301
2.343652915 1.020964891 -0.115771566
2.358657184 1.129288416 -0.239416074
2.376868378 1.245417547 -0.371634785
2.490017497 0.971587088 -0.493310358
2.422571294 0.946742569 0.686241213
2.389363109 1.038160793 0.556832545
2.382943484 1.140927462 0.437663601
2.408807789 1.261093107 0.322386863
2.371506126 0.926547771 0.187821434
2.389812992 1.034243367 0.071826905
2.374946353 1.131142888 -0.048029245
2.37103147 1.235101237 -0.172555429
2.363175728 0.917023204 -0.277433557
2.388871011 1.027357339 -0.406516968
2.429033998 1.047203729 0.777307438
2.426344798 1.15443965 0.652184663
2.407989351 1.255166258 0.526213784
2.373280182 0.920049277 0.376004914
2.378432171 1.022534318 0.260553783
2.397815053 1.135378603 0.145076556
2.402472403 1.244994292 0.023472324
2.369073841 0.914235629 -0.091338878
2.35860648 1.008991021 -0.210685856
2.3662277 1.114259976 -0.336393211
2.439941179 1.259121683 -0.483987379
2.450882531 1.273567881 0.753636882
2.408413576 0.925035426 0.578436892
2.37774179 1.015420799 0.453750846
2.388158525 1.123936402 0.338211049
2.405564263 1.239161092 0.221282371
2.381314417 0.912719858 0.09480555
2.388860706 1.015883039 -0.023288384
2.368301198 1.108890835 -0.143777604
2.358495501 1.209191076 -0.268797653
2.379372333 0.90517106 -0.373605769
2.429896765 0.922994781 0.794484825
2.416223754 1.024145802 0.663955503
2.400863943 1.123229243 0.539660384
2.409264405 1.234806918 0.42225277
2.392558738 1.115986188 0.240912065
2.394224501 1.222459012 0.121508782
2.411326248 0.914737027 0.001755469
2.373497941 0.999494166 -0.116631147
2.36059347 1.094812129 -0.238230836
2.38755791 1.21391132 -0.370948856
2.46033309 0.925378807 -0.485142972
2.426768038 0.914215646 0.684200348
2.401632158 1.11462064 0.539061836
2.387837126 1.1048769 0.240094171
2.394025184 1.001367265 0.071578749
2.371398557 1.093955924 -0.047682399
2.363036535 1.087148633 -0.23813967
2.416168315 1.109192128 -0.441416343
2.428521522 1.230284427 0.633015281
2.404168494 1.208681207 0.023342213
2.44134463 1.230801149 0.746003078
2.393134662 1.087332513 0.047488088
2.430744508 1.207526166 -0.478432285
2.443250938 0.89483431 0.68649632
2.417503382 1.204065167 0.523360095
2.398394047 1.189275572 0.218918764
2.392813126 1.078342166 0.047415836
2.377368909 1.175181873 -0.07398354
2.375873861 1.172431097 -0.268696743
2.437087614 1.201369407 -0.478953052
2.445394327 1.214082198 0.744950161
2.34739556 0.85235716 0.46348847
2.393389229 1.070982915 0.143383904
2.405318379 1.181652587 0.023246797
2.385768624 0.860874788 -0.183987165
2.423953642 1.185665083 -0.475654712
2.436991859 1.200605148 0.741264924
2.353700304 0.846482366 0.46421836
2.392100456 1.061609945 0.143110899
2.409831308 1.174705711 0.023255471
2.430190051 1.070806165 -0.440924991
2.42521904 1.182218238 0.627353256
2.391819246 1.156857398 0.023047291
2.440943351 1.175469877 -0.477564266
2.439104813 1.183103281 0.739685522
2.562783764 0.903956849 0.609283965
2.388288175 1.044460016 0.334016789
2.396510741 0.94391403 0.165299187
2.39303452 1.043303369 0.047162952
2.377187596 1.139008515 -0.073537347
2.393590841 0.838880259 -0.183987165
2.381176018 0.931734741 -0.304131573
2.42313695 1.049991296 -0.438468117
2.433462836 1.060838989 0.751638172
2.425402333 1.163943794 0.625541395
2.49505509 0.871469519 0.490494888
2.376011185 1.030419019 0.331856091
2.3863803 0.931477055 0.164402554
2.387964418 1.032385881 0.047000384
2.377059555 1.129993381 -0.073425804
2.383903908 0.827282032 -0.183046618
2.364580967 0.916885971 -0.301651275
2.412751342 1.036710504 -0.436011244
2.431406824 1.051077552 0.750003632
2.428082443 1.156078651 0.625314898
2.482849482 0.858668966 0.487575272
2.407322297 0.93240679 0.355882699
2.389980475 1.026739467 0.237367885
2.390854302 1.129663413 0.11952201
2.440141695 0.840991288 0.001756831
2.361094301 0.910049778 -0.114595305
2.376580744 1.014846834 -0.23658977
2.395884565 1.12703143 -0.366696123
2.461503801 0.840574803 -0.480061023
2.44360598 0.835902299 0.681394162
2.400700606 0.92268003 0.549725823
2.398887053 1.02438291 0.432107016
2.404114983 1.129889617 0.314968887
2.432694295 0.831932501 0.189660669
2.401208919 0.918885373 0.070917003
2.395556804 1.017181976 -0.047518102
2.356788356 1.10172666 -0.167917889
2.370249106 0.804483046 -0.273952047
2.399380029 0.911901766 -0.40126559
2.428725059 0.925540096 0.763774381
2.41999837 1.026424719 0.638032375
2.400972796 1.12315882 0.513657709
2.494915961 0.845884111 0.389157037
2.394101341 0.909571251 0.25774998
2.388236813 1.007695002 0.141745849
2.396588276 1.114131038 0.022925852
2.424136223 0.817737704 -0.092021857
2.362463193 0.892694613 -0.207411788
2.367072599 0.992832728 -0.330142441
2.447068109 1.132512221 -0.475307513
2.43423226 1.134950823 0.732841421
2.446836929 0.821079651 0.5786557
2.388306114 1.000083385 0.236277387
2.37277744 0.991439833 0.046458488
2.375311555 1.093631197 -0.072951724
2.361916301 0.982981961 -0.234219308
2.385452179 1.095425098 -0.363540862
2.469135959 0.817884092 -0.480061023
2.447525155 0.812158461 0.680373731
2.502523423 0.935471602 0.571045987
2.416410992 1.005672418 0.43357788
2.3941224 0.993896942 0.236550019
2.515639494 0.83363985 0.098520499
2.416195134 0.898637948 -0.023126908
2.368820693 0.978937025 -0.140922913
2.365456512 1.078365295 -0.263651745
2.408154707 0.791356347 -0.372008545
2.477963128 0.812917524 0.797115596
2.365585501 0.875644875 0.442687985
2.439450386 0.799104311 0.001747301
2.44482285 1.104266712 -0.472877165
2.44106264 1.110900203 0.731788504
2.676588188 0.868785393 0.104613018
2.382165768 0.96864137 -0.046952193
2.490188277 0.800037878 0.799454006
2.43170711 0.884202498 0.654635067
2.419834916 0.981804466 0.531680158
2.410696821 0.9758925 0.333254177
2.450742945 0.887929214 0.167284558
2.381056436 0.960751143 0.046386233
2.383987938 1.062365711 -0.072812294
2.390880119 0.861758347 -0.208721421
2.363615161 0.94901584 -0.327591123
2.435352791 1.082047063 -0.469752422
2.438823588 1.088599073 0.621011742
2.429798091 0.870481101 0.071192727
2.417246107 0.764761754 -0.18391482
2.443521843 0.871560427 0.762364673
2.357596327 0.839938454 0.439230825
2.440062591 0.86514549 -0.023225587
2.409455067 0.948837931 -0.429951001
2.433880958 0.964655242 0.741285799
2.429403894 1.066566508 0.616935083
2.344372133 0.827130515 0.436292258
2.389772043 0.940904582 0.234368995
2.571588906 0.79995764 0.100117926
2.448366185 0.859643001 -0.023279413
2.364126726 0.92642566 -0.139605354
2.375777963 1.03068275 -0.262642758
2.391112113 0.737275627 -0.367216867
2.575681299 0.792769058 0.823715302
2.42998537 1.057941739 0.616255647
2.406818278 1.040867115 0.214436063
2.400728057 1.036443352 0.022682974
2.439440794 0.74715498 -0.185072431
2.371383655 0.918506278 -0.327080849
2.469647736 0.75131786 -0.476431041
2.571233424 0.783704181 0.709200979
2.449872666 0.847868628 0.554115286
2.386092432 0.925028212 0.423935547
2.396158583 1.028929185 0.309199365
2.551916134 0.777572936 0.19679685
2.413833752 0.831482482 0.070420698
2.39585967 0.923191433 -0.046879174
2.369675783 1.011782079 -0.166307625
2.398898432 0.724912678 -0.274278443
2.421303748 0.827867549 -0.400029987
2.445865091 0.838708105 0.759827184
2.401557977 0.924290654 0.624587711
2.405904959 1.028006584 0.506999154
2.496011538 0.853956741 0.363666797
2.395732676 1.018669655 0.212887503
2.505161349 0.754076784 0.097257417
2.406009677 0.81997614 -0.022803957
2.363223422 0.90107024 -0.139056379
2.345762139 0.992108675 -0.258304048
2.420551584 0.722024722 -0.370701742
2.636945897 0.785130565 0.840961311
2.429019988 0.824612095 0.648993786
2.409226346 0.917754364 0.52489703
2.395287388 1.012671236 0.405609215
2.529618112 0.755049481 0.292007248
2.438048918 0.824546423 0.165171097
2.39459336 0.906919646 0.046259792
2.3657018 0.993890868 -0.071585273
2.44908294 0.725521212 -0.185289481
2.36471955 0.793863832 -0.296690678
2.424649392 0.912114479 -0.430114795
2.42769587 0.919370493 0.735019861
