-2.836569 -6.375250 -0.638838
-2.433087 -6.052819 -0.661601
-2.950061 -5.505085 -0.683575
-2.690188 -5.493556 -0.727554
-2.386870 -5.360258 -0.754684
-2.098604 -5.215987 -0.778663
-2.541862 -4.737587 -0.789030
-2.307403 -4.705018 -0.819212
-2.100008 -4.709408 -0.856135
-1.895812 -4.710530 -0.895064
-2.458481 -4.574509 -0.958489
-2.148773 -4.374602 -0.947026
-1.867389 -4.180288 -0.935402
-1.651967 -4.105270 -0.949969
-1.975192 -3.665121 -0.929654
-1.761823 -3.580035 -0.929914
-1.546303 -3.460541 -0.922715
-1.347689 -3.346079 -0.916938
-1.644196 -3.042153 -0.910879
-1.278909 -2.860116 -0.890043
-3.752499 -9.317377 1.190995
-2.916259 -5.437725 0.682523
-5.099664 -11.434305 1.142492
-4.628948 -11.477392 1.012031
-2.915739 -5.431063 0.454729
-5.693357 -11.601737 0.829378
-5.133903 -11.500284 0.688690
-4.613884 -11.422794 0.556836
-2.923826 -5.442024 0.229658
-3.963667 -8.066348 0.247906
-5.139846 -11.500652 0.227578
-4.654456 -11.519768 0.107777
-2.939681 -5.466727 0.004225
-3.969793 -8.074543 -0.080720
-4.412968 -9.864058 -0.197301
-4.660230 -11.513803 -0.346521
-2.951438 -5.483084 -0.223980
-3.986753 -8.099754 -0.408842
-3.986611 -8.900210 -0.536188
-3.290348 -8.121557 -0.565588
-2.964087 -5.499681 -0.453203
-3.334968 -6.767493 -0.619616
-2.854892 -6.363792 -0.638564
-2.452767 -6.048092 -0.661904
-2.969298 -5.500382 -0.684119
-2.705711 -5.482605 -0.727199
-2.400866 -5.347481 -0.753919
-2.120558 -5.224209 -0.780858
-2.560619 -4.737599 -0.790337
-2.324015 -4.702346 -0.819984
-2.123346 -4.722738 -0.859738
-1.910625 -4.705604 -0.895238
-2.472972 -4.567810 -0.958670
-2.166103 -4.375907 -0.948743
-1.880608 -4.175433 -0.935603
-1.665290 -4.101994 -0.950389
-1.990153 -3.665906 -0.931398
-1.766741 -3.562398 -0.926736
-1.558110 -3.458438 -0.923425
-1.359773 -3.346418 -0.918170
-1.635025 -3.003123 -0.900690
-1.319701 -2.927211 -0.912178
-3.783310 -9.311341 1.191701
-2.933401 -5.429627 0.682633
-5.150240 -11.453119 1.145945
-4.678036 -11.497294 1.015046
-2.937131 -5.430865 0.455465
-5.739099 -11.604791 0.830851
-5.178997 -11.506331 0.690001
-4.661347 -11.439115 0.558326
-2.949070 -5.448847 0.230327
-3.995049 -8.067587 0.248320
-5.180445 -11.496679 0.227813
-4.694683 -11.517472 0.107889
-2.956915 -5.458562 0.004226
-3.998986 -8.071286 -0.080810
-4.406622 -9.769358 -0.195677
-4.693265 -11.493899 -0.346353
-2.972057 -5.481032 -0.224267
-4.015579 -8.095539 -0.409250
-4.018008 -8.897036 -0.536737
-3.319779 -8.122509 -0.566361
-2.987132 -5.501956 -0.454144
-3.354385 -6.754552 -0.619371
-2.873582 -6.353188 -0.638382
-2.472441 -6.043301 -0.662207
-2.983784 -5.486880 -0.683575
-2.722076 -5.473389 -0.727081
-2.415625 -5.336475 -0.753409
-2.135074 -5.214012 -0.780310
-2.578453 -4.735804 -0.791353
-2.337550 -4.693425 -0.819675
-2.135382 -4.710810 -0.858755
-1.924679 -4.698809 -0.895064
-2.487915 -4.561928 -0.959033
-2.180833 -4.371876 -0.949315
-1.889763 -4.161615 -0.933801
-1.678608 -4.098675 -0.950809
-1.999049 -3.655502 -0.930308
-1.783757 -3.569157 -0.929914
-1.565499 -3.446565 -0.921532
-1.382164 -3.371823 -0.926300
-1.653066 -3.014202 -0.905530
-3.815248 -9.307959 1.192761
-2.957647 -5.434571 0.684392
-5.193166 -11.454498 1.147672
-4.714423 -11.485654 1.015291
-2.953779 -5.421828 0.455465
-5.778236 -11.594274 0.831363
-5.218813 -11.500390 0.690601
-4.706675 -11.449707 0.559545
-2.968164 -5.444161 0.230513
-4.023352 -8.062448 0.248540
-5.213625 -11.476180 0.227722
-4.732278 -11.508563 0.107941
-2.971732 -5.445954 0.004223
-4.029983 -8.071504 -0.080935
-3.676656 -8.084775 -0.162160
-4.749825 -11.531205 -0.347915
-2.990774 -5.475395 -0.224411
-4.041737 -8.085863 -0.409385
-3.687386 -8.098615 -0.489250
-3.341260 -8.103982 -0.565781
-3.011176 -5.505892 -0.455229
-3.374200 -6.742446 -0.619207
-2.893473 -6.345248 -0.638473
-2.490970 -6.035687 -0.662207
-2.994873 -5.467238 -0.682269
-2.735296 -5.457910 -0.726136
-2.429926 -5.324528 -0.752771
-2.156355 -5.220254 -0.782230
-2.595349 -4.732208 -0.792079
-2.352382 -4.687115 -0.819830
-2.149414 -4.703340 -0.858592
-1.942095 -4.700164 -0.896453
-2.488642 -4.530141 -0.953951
-2.190708 -4.358148 -0.947789
-1.897220 -4.144217 -0.931199
-1.692295 -4.096217 -0.951439
-2.015905 -3.659610 -0.932923
-1.788566 -3.551490 -0.926736
-1.569997 -3.428495 -0.917984
-1.394354 -3.372045 -0.927531
-1.659968 -3.004884 -0.904256
-1.178085 -2.850439 -0.910917
-3.854411 -9.321906 1.196058
-2.954716 -5.389737 0.679884
-5.235735 -11.454814 1.149308
-4.755358 -11.484950 1.016513
-2.968000 -5.408369 0.455097
-6.278219 -12.501291 0.897778
-5.260302 -11.497945 0.691421
-4.746754 -11.447209 0.560132
-2.985334 -5.435905 0.230550
-4.051661 -8.057210 0.248761
-3.653390 -7.976731 0.158504
-4.773310 -11.507845 0.108072
-2.987944 -5.435934 0.004222
-4.064165 -8.077860 -0.081124
-3.701026 -8.072549 -0.162142
-4.782879 -11.511040 -0.347748
-3.010449 -5.471447 -0.224627
-4.070120 -8.080561 -0.409747
-3.726794 -8.119025 -0.491172
-3.365724 -8.092772 -0.565716
-3.025648 -5.492260 -0.454867
-3.393074 -6.728503 -0.618879
-2.923741 -6.359866 -0.640844
-2.510240 -6.029854 -0.662409
-3.016914 -5.467598 -0.683466
-2.751580 -5.448606 -0.726018
-2.442105 -5.308037 -0.751495
-2.175027 -5.220015 -0.783190
-2.616075 -4.735483 -0.793967
-2.376114 -4.698391 -0.823073
-2.165898 -4.701203 -0.859411
-1.953475 -4.686911 -0.895064
-2.501576 -4.520764 -0.953588
-2.202294 -4.347904 -0.947026
-1.911568 -4.141935 -0.931999
-1.705606 -4.092811 -0.951858
-2.032805 -3.663648 -0.935538
-1.800335 -3.547723 -0.927190
-1.578879 -3.420133 -0.917038
-1.383053 -3.315871 -0.913243
-1.683285 -3.025127 -0.911898
-1.169849 -2.806092 -0.897888
-3.873436 -9.287123 1.193114
-5.279606 -11.457691 1.151216
-4.790187 -11.469386 1.016432
-2.983131 -5.396620 0.454877
-6.361153 -12.570123 0.904118
-5.301407 -11.494447 0.692185
-4.788405 -11.448260 0.560900
-3.001029 -5.424972 0.230476
-4.079524 -8.050984 0.248954
-3.680360 -7.970932 0.158613
-4.812453 -11.502372 0.108158
-3.003154 -5.424117 0.004220
-4.092998 -8.073380 -0.081204
-3.738359 -8.088383 -0.162690
-4.822036 -11.505531 -0.348027
-3.032550 -5.471801 -0.225022
-4.098961 -8.076054 -0.410154
-3.759652 -8.124771 -0.492215
-3.393238 -8.088850 -0.566167
-3.039096 -5.476847 -0.454361
-2.855662 -5.619857 -0.517711
-2.947007 -6.358998 -0.641664
-2.526032 -6.015703 -0.661702
-3.038504 -5.467005 -0.684554
-2.766032 -5.435714 -0.725428
-2.455040 -5.293322 -0.750475
-2.189880 -5.210577 -0.782779
-2.635883 -4.736944 -0.795564
-2.389620 -4.689318 -0.822764
-2.184050 -4.702589 -0.860885
-1.977004 -4.702684 -0.899230
-2.506337 -4.496747 -0.950140
-2.210268 -4.330634 -0.944738
-1.929225 -4.146711 -0.934402
-1.707546 -4.062321 -0.945981
-2.039750 -3.649727 -0.933577
-1.812541 -3.544784 -0.927871
-1.591824 -3.420558 -0.918457
-1.400736 -3.329479 -0.918170
-1.692085 -3.019105 -0.911643
-1.187002 -2.822823 -0.904403
-3.924244 -9.328286 1.199943
-2.790672 -5.474729 0.618440
-5.320187 -11.453181 1.152397
-4.828447 -11.461984 1.017084
-6.765526 -13.268002 0.955802
-5.340435 -11.486277 0.692676
-4.826223 -11.439958 0.561216
-6.389421 -11.466981 0.487996
-4.105569 -8.041102 0.249037
-3.720408 -7.993142 0.159281
-4.851996 -11.497687 0.108254
-4.508240 -8.083889 0.006300
-4.119112 -8.063457 -0.081231
-3.775402 -8.103159 -0.163219
-4.854976 -11.485159 -0.347859
-4.512608 -8.083759 -0.333004
-2.846485 -5.565962 -0.283118
-3.789626 -8.124057 -0.492873
-3.424649 -8.094025 -0.567262
-4.013038 -7.180008 -0.596674
-2.857901 -5.581794 -0.515010
-2.968189 -6.353536 -0.642029
-2.546416 -6.012505 -0.662207
-3.057204 -5.461127 -0.684989
-2.784961 -5.431620 -0.726018
-2.469588 -5.282171 -0.749964
-2.203536 -5.198363 -0.781956
-2.638793 -4.708121 -0.792079
-2.417083 -4.707453 -0.827243
-2.203069 -4.705693 -0.862686
-1.992961 -4.700223 -0.899925
-2.518677 -4.486464 -0.949595
-2.220401 -4.317722 -0.943402
-1.947346 -4.152304 -0.937004
-1.714277 -4.043561 -0.942833
-2.052374 -3.646003 -0.934231
-1.818947 -3.530549 -0.925601
-1.601898 -3.414779 -0.918221
-1.405266 -3.311783 -0.914474
-1.706093 -3.022321 -0.914190
-1.189291 -2.804158 -0.899588
-3.957111 -9.326259 1.201238
-2.824729 -5.499774 0.622245
-5.361634 -11.450333 1.153761
-4.869046 -11.459960 1.018225
-2.833941 -5.515813 0.397973
-5.379040 -11.477071 0.693113
-4.871076 -11.448079 0.562345
-6.424571 -11.447325 0.487996
-2.828322 -5.497794 0.170537
-3.771669 -8.038715 0.160419
-4.886856 -11.481828 0.108245
-4.534489 -8.072636 0.006302
-2.853317 -5.543526 -0.055933
-3.805345 -8.102398 -0.163438
-4.883917 -11.455497 -0.347413
-4.542286 -8.078588 -0.333364
-2.859429 -5.549211 -0.282711
-3.817082 -8.117813 -0.493203
-3.451424 -8.088069 -0.567584
-4.034068 -7.165924 -0.596529
-2.869529 -5.562372 -0.514028
-2.988516 -6.346202 -0.642211
-2.571493 -6.020218 -0.663922
-3.077362 -5.457783 -0.685750
-2.801156 -5.422168 -0.725900
-2.486204 -5.275467 -0.750092
-2.217138 -5.186113 -0.781133
-2.656144 -4.705173 -0.792950
-2.437869 -4.712301 -0.829406
-2.222126 -4.708726 -0.864488
-2.010469 -4.701331 -0.901314
-2.530978 -4.476147 -0.949051
-2.231379 -4.306532 -0.942449
-1.958401 -4.142767 -0.936203
-1.723983 -4.031989 -0.941364
-2.067883 -3.647331 -0.936192
-1.828424 -3.522359 -0.924920
-1.617767 -3.421267 -0.921296
-1.415419 -3.307457 -0.914474
-1.715835 -3.017913 -0.914445
-1.204300 -2.815487 -0.904403
-3.973203 -9.284860 1.197471
-2.840217 -5.488431 0.621944
-5.397588 -11.435631 1.153942
-4.909677 -11.457793 1.019366
-2.847638 -5.500889 0.397525
-5.423609 -11.480376 0.694314
-4.925872 -11.478982 0.564603
-5.217002 -9.229217 0.394119
-2.842416 -5.483766 0.170372
-3.819396 -8.075914 0.161394
-4.920875 -11.464024 0.108219
-4.563174 -8.065649 0.006308
-2.865707 -5.525869 -0.055844
-3.834462 -8.099722 -0.163621
-4.023520 -9.357705 -0.284166
-4.569511 -8.068963 -0.333543
-2.872758 -5.533319 -0.282349
-3.844535 -8.111478 -0.493532
-3.477799 -8.081109 -0.567842
-4.058986 -7.158720 -0.596963
-2.882444 -5.545583 -0.513291
-3.009253 -6.339702 -0.642485
-2.596249 -6.026921 -0.665537
-3.104891 -5.467333 -0.688144
-2.819611 -5.417073 -0.726372
-2.503654 -5.270502 -0.750475
-2.233038 -5.179287 -0.781133
-2.674968 -4.704743 -0.794257
-2.453228 -4.706552 -0.829715
-2.237833 -4.704559 -0.864979
-2.027223 -4.700567 -0.902355
-2.543238 -4.465798 -0.948506
-2.245035 -4.300536 -0.942639
-1.971102 -4.136739 -0.936203
-1.737507 -4.029375 -0.941994
-2.069868 -3.624867 -0.932052
-1.845089 -3.527952 -0.927871
-1.624493 -3.408394 -0.919167
-1.441305 -3.339582 -0.924575
-1.693852 -2.958088 -0.897888
-1.576317 -3.008284 -0.928919
-1.205335 -2.794167 -0.898738
-4.025672 -9.328244 1.204653
-2.854742 -5.475280 0.621444
-5.439920 -11.434306 1.155487
-4.946388 -11.446335 1.019692
-2.858502 -5.480624 0.396692
-5.464814 -11.476305 0.695079
-4.967414 -11.478484 0.565325
-5.249742 -9.220983 0.394453
-2.857375 -5.471476 0.170261
-3.849318 -8.074989 0.161611
-4.066195 -9.393288 0.088789
-4.590868 -8.056825 0.006312
-2.884499 -5.520596 -0.055880
-3.866183 -8.102358 -0.163913
-4.957694 -11.433569 -0.347664
-4.599691 -8.064454 -0.333939
-2.887869 -5.520939 -0.282168
-3.870694 -8.102348 -0.493697
-3.504164 -8.074063 -0.568100
-4.094284 -7.169618 -0.598917
-2.892508 -5.523470 -0.512063
-3.026539 -6.325948 -0.642029
-2.618295 -6.027139 -0.666445
-3.132508 -5.476765 -0.690538
-2.836679 -5.409276 -0.726491
-2.533090 -5.290528 -0.754429
-2.249313 -5.173319 -0.781270
-2.712989 -4.737726 -0.801227
-2.469034 -4.701627 -0.830178
-2.250977 -4.695003 -0.864488
-2.040849 -4.692519 -0.902008
-2.559863 -4.463093 -0.949595
-2.260503 -4.297972 -0.943593
-1.982087 -4.127140 -0.935402
-1.751810 -4.028509 -0.943043
-2.086331 -3.627806 -0.934449
-1.853634 -3.517967 -0.926736
-1.631156 -3.395512 -0.917038
-1.447677 -3.326258 -0.922112
-1.698571 -2.945339 -0.895596
-1.566176 -2.966755 -0.917575
-1.221936 -2.808924 -0.904686
-2.868750 -5.461211 0.620843
-5.490045 -11.448991 1.158668
-4.996611 -11.465827 1.022789
-2.871125 -5.463878 0.396116
-5.538450 -11.539602 0.699938
-5.004604 -11.467769 0.565551
-5.277510 -9.203967 0.394416
-2.874613 -5.463568 0.170289
-3.877105 -8.069450 0.161738
-5.004327 -11.463858 0.108505
-4.625021 -8.059181 0.006325
-2.893504 -5.496678 -0.055727
-3.891889 -8.092261 -0.163949
-5.008767 -11.454940 -0.348780
-4.640340 -8.078035 -0.335089
-2.903396 -5.509402 -0.282032
-3.903330 -8.106628 -0.494685
-3.534920 -8.076987 -0.569066
-4.119741 -7.163075 -0.599423
-2.913626 -5.522503 -0.512800
-3.045068 -6.314839 -0.641847
-2.639568 -6.025457 -0.667151
-3.160708 -5.486941 -0.693040
-2.856972 -5.407572 -0.727435
-2.550171 -5.284518 -0.754684
-2.264378 -5.164580 -0.780995
-2.726523 -4.727666 -0.800936
-2.487605 -4.701890 -0.831568
-2.266229 -4.689851 -0.864816
-2.053654 -4.682628 -0.901314
-2.573543 -4.455218 -0.949595
-2.272300 -4.288415 -0.943021
-1.997301 -4.126331 -0.936603
-1.767302 -4.030279 -0.944722
-2.083266 -3.596896 -0.928129
-1.869441 -3.521726 -0.929233
-1.659349 -3.427221 -0.926972
-1.461770 -3.330676 -0.924575
-1.667775 -2.871544 -0.874709
-1.556248 -2.926168 -0.906494
-1.229007 -2.801649 -0.903553
-2.885491 -5.452384 0.620843
-5.043794 -11.477817 1.025234
-2.888341 -5.455926 0.396180
-5.606003 -11.589072 0.703979
-5.042982 -11.459675 0.565912
-5.318716 -9.210232 0.395382
-2.890426 -5.452957 0.170234
-3.906201 -8.066515 0.161918
-3.522676 -8.002658 0.075847
-4.653728 -8.051880 0.006330
-2.906138 -5.479824 -0.055646
-3.921495 -8.090179 -0.164150
-5.025739 -11.398360 -0.347525
-4.675110 -8.081061 -0.335808
-2.921222 -5.502233 -0.282123
-3.936465 -8.111683 -0.495728
-3.564921 -8.077973 -0.569903
-4.139698 -7.146950 -0.599134
-2.931023 -5.514419 -0.512882
-3.063557 -6.303676 -0.641664
-2.663669 -6.030072 -0.668564
-3.202468 -5.520210 -0.698480
-2.875415 -5.402287 -0.727908
-2.569842 -5.283805 -0.755705
-2.281013 -5.159420 -0.781270
-2.739026 -4.715857 -0.800356
-2.511313 -4.711674 -0.834657
-2.282334 -4.686424 -0.865471
-2.070798 -4.682610 -0.902529
-2.582749 -4.439651 -0.947962
-2.286371 -4.283155 -0.943402
-2.016395 -4.133392 -0.939606
-1.772937 -4.009636 -0.941154
-2.083473 -3.571941 -0.923335
-1.877481 -3.510821 -0.927871
-1.669429 -3.421241 -0.926736
-1.452370 -3.281862 -0.912257
-1.567951 -2.926481 -0.908077
-1.235656 -2.793479 -0.902137
-2.903610 -5.446140 0.621143
-5.082617 -11.470489 1.025968
-2.904596 -5.446158 0.396116
-5.647657 -11.584384 0.704743
-5.089056 -11.468804 0.567131
-5.330368 -9.165365 0.394156
-2.906671 -5.443182 0.170206
-3.936631 -8.066175 0.162153
-5.113112 -11.519763 0.109329
-4.691991 -8.060900 0.006349
-2.919637 -5.464709 -0.055584
-3.952441 -8.090687 -0.164406
-4.386577 -9.866631 -0.301233
-4.703905 -8.073588 -0.336095
-2.939031 -5.495007 -0.282213
-3.967475 -8.112125 -0.496497
-3.592527 -8.073381 -0.570354
-4.179697 -7.165231 -0.601739
-2.948398 -5.506279 -0.512964
-3.083758 -6.296036 -0.641847
-2.683371 -6.024598 -0.668866
-3.225908 -5.521517 -0.699894
-2.892445 -5.394315 -0.728026
-2.591279 -5.286583 -0.757236
-2.296428 -5.151493 -0.781133
-2.755979 -4.711702 -0.801082
-2.532767 -4.717004 -0.836974
-2.300178 -4.686484 -0.866781
-2.091572 -4.690626 -0.905306
-2.591884 -4.424070 -0.946328
-2.297176 -4.271798 -0.942449
-2.026905 -4.122790 -0.938605
-1.788813 -4.012215 -0.943043
-2.096893 -3.569740 -0.924424
-1.892401 -3.512761 -0.929914
-1.681204 -3.418719 -0.927446
-1.486918 -3.332264 -0.927531
-1.574173 -2.916564 -0.906494
-1.241877 -2.784420 -0.900437
-2.921717 -5.439836 0.621444
-5.124289 -11.469403 1.027272
-2.920819 -5.436342 0.396052
-5.688455 -11.577757 0.705399
-5.146657 -11.503291 0.569615
-6.707926 -11.453025 0.493420
-2.921462 -5.430717 0.170096
-3.974597 -8.080975 0.162695
-5.158642 -11.526841 0.109546
-4.718723 -8.049918 0.006351
-2.941128 -5.464531 -0.055673
-3.985194 -8.094669 -0.164734
-4.418053 -9.855864 -0.301316
-4.738261 -8.075495 -0.336778
-2.957297 -5.488602 -0.282349
-3.999407 -8.114245 -0.497375
-3.622590 -8.074157 -0.571191
-4.208733 -7.164413 -0.602752
-2.966223 -5.498962 -0.513127
-3.108348 -6.297261 -0.642941
-2.707548 -6.029043 -0.670279
-3.247370 -5.519305 -0.700873
-2.916059 -5.398522 -0.729798
-2.611879 -5.287501 -0.758511
-2.312222 -5.144424 -0.781133
-2.777954 -4.716012 -0.803260
-2.545347 -4.705735 -0.836356
-2.318919 -4.688248 -0.868419
-2.113221 -4.700355 -0.908431
-2.585956 -4.383066 -0.939250
-2.312608 -4.269046 -0.943402
-2.040414 -4.118308 -0.939005
-1.821559 -4.052188 -0.953747
-1.913853 -3.526626 -0.935134
-1.688664 -3.407451 -0.925790
-1.485205 -3.301171 -0.920141
-1.583113 -2.911721 -0.906494
-1.245694 -2.770101 -0.897038
-2.943601 -5.440472 0.622545
-5.170505 -11.478163 1.029472
-2.940809 -5.433499 0.396500
-5.734138 -11.580832 0.706654
-5.192194 -11.510212 0.570744
-6.749632 -11.443581 0.493903
-2.937157 -5.419971 0.170041
-4.004699 -8.079493 0.162912
-5.198917 -11.521897 0.109650
-4.761189 -8.065544 0.006375
-2.963122 -5.465152 -0.055772
-4.015341 -8.093152 -0.164953
-4.437154 -9.817668 -0.300563
-4.773690 -8.078989 -0.337533
-2.978411 -5.487406 -0.282756
-4.017175 -8.087628 -0.496497
-3.651868 -8.073006 -0.571900
-4.231201 -7.152326 -0.602824
-2.987362 -5.497717 -0.513864
-3.132532 -6.297503 -0.643944
-2.728084 -6.025240 -0.670783
-3.270368 -5.519579 -0.702179
-2.926913 -5.379083 -0.728380
-2.636044 -5.295445 -0.760807
-2.328403 -5.138208 -0.781270
-2.793419 -4.709169 -0.803550
-2.571590 -4.719593 -0.840217
-2.336812 -4.688175 -0.869729
-2.131698 -4.702819 -0.910167
-2.578294 -4.339603 -0.931627
-2.325225 -4.261069 -0.943212
-2.047787 -4.101510 -0.936603
-1.837211 -4.053705 -0.955427
-1.903642 -3.482283 -0.924920
-1.695203 -3.394431 -0.923661
-1.500530 -3.308073 -0.923343
-1.592039 -2.906850 -0.906494
-2.958850 -5.428795 0.622245
-5.211877 -11.475858 1.030695
-2.956509 -5.422699 0.396372
-5.774099 -11.572119 0.707200
-5.238235 -11.517872 0.571918
-6.787770 -11.427975 0.494126
-2.959519 -5.421463 0.170372
-4.037957 -8.084164 0.163255
-5.221819 -11.478587 0.109390
-4.799197 -8.073247 0.006393
-2.980354 -5.456913 -0.055781
-4.041046 -8.082584 -0.164990
-3.682645 -8.082076 -0.247774
-4.804586 -8.074610 -0.337965
-3.000024 -5.487007 -0.283208
-4.044650 -8.080623 -0.496826
-3.675790 -8.059948 -0.571771
-4.257718 -7.147023 -0.603475
-3.013786 -5.506011 -0.515501
-3.147822 -6.279851 -0.643123
-2.746969 -6.017747 -0.670884
-3.281174 -5.499276 -0.700873
-2.945311 -5.373561 -0.728853
-2.655836 -5.294425 -0.761828
-2.346213 -5.135545 -0.781956
-2.808361 -4.701427 -0.803695
-2.590336 -4.719477 -0.841607
-2.352955 -4.684509 -0.870385
-2.146525 -4.697153 -0.910341
-2.598665 -4.343487 -0.934168
-2.334976 -4.247893 -0.941876
-2.062122 -4.098709 -0.937404
-1.849639 -4.048049 -0.955427
-1.917605 -3.482398 -0.926509
-1.697311 -3.372724 -0.919167
-1.515509 -3.314031 -0.926300
-1.601416 -2.902796 -0.906758
-2.955380 -5.383061 0.618039
-5.254529 -11.476126 1.032162
-2.968808 -5.405731 0.395796
-6.289968 -12.509778 0.765679
-5.277710 -11.510827 0.572369
-6.826390 -11.413100 0.494386
-2.977583 -5.414986 0.170454
-4.067684 -8.081561 0.163454
-3.686285 -8.037665 0.076706
-4.822916 -8.056770 0.006392
-2.996118 -5.445992 -0.055763
-4.071223 -8.080864 -0.165209
-3.722027 -8.102532 -0.248750
-4.839609 -8.076978 -0.338684
-3.015880 -5.476027 -0.283118
-4.066724 -8.062828 -0.496497
-3.705920 -8.060420 -0.572608
-4.284243 -7.141624 -0.604126
-3.031145 -5.497612 -0.515583
-3.158094 -6.252386 -0.641300
-2.768330 -6.015617 -0.671591
-3.299054 -5.490888 -0.701091
-2.959383 -5.360153 -0.728262
-2.673408 -5.288908 -0.762211
-2.370660 -5.147217 -0.784837
-2.823281 -4.693636 -0.803840
-2.607671 -4.716695 -0.842534
-2.368652 -4.679909 -0.870876
-2.160514 -4.689651 -0.910167
-2.349900 -4.244145 -0.942639
-2.083548 -4.109841 -0.941408
-1.856731 -4.030811 -0.952698
-1.935838 -3.490126 -0.930141
-1.715120 -3.382232 -0.923188
-1.521612 -3.300564 -0.923836
-1.609845 -2.897026 -0.906494
-5.296813 -11.475335 1.033548
-2.980548 -5.387864 0.395155
-6.700625 -13.225258 0.810725
-5.318868 -11.507276 0.573001
-6.877871 -11.419496 0.495574
-2.993698 -5.404951 0.170427
-4.092459 -8.069044 0.163454
-3.719740 -8.045379 0.076888
-4.851741 -8.048787 0.006397
-3.007480 -5.427153 -0.055664
-4.097805 -8.071901 -0.165282
-3.758209 -8.115566 -0.249503
-4.872110 -8.074927 -0.339223
-3.030243 -5.462381 -0.282892
-4.097323 -8.061884 -0.497210
-3.734408 -8.057161 -0.573188
-4.310774 -7.136130 -0.604777
-3.048481 -5.489158 -0.515665
-2.850230 -5.600119 -0.575291
-2.786772 -6.007096 -0.671591
-3.309710 -5.470534 -0.699785
-2.969540 -5.339767 -0.726727
-2.689622 -5.280681 -0.762211
-2.388109 -5.143513 -0.785385
-2.840743 -4.690030 -0.804712
-2.622610 -4.709536 -0.842689
-2.395548 -4.697227 -0.875462
-2.178624 -4.691039 -0.911729
-2.366734 -4.243774 -0.944165
-2.098821 -4.108664 -0.942609
-1.868265 -4.023322 -0.952278
-1.944636 -3.480769 -0.929233
-1.723720 -3.373494 -0.922242
-1.523561 -3.278303 -0.918909
-1.613072 -2.881974 -0.903328
-2.821785 -5.532095 0.566702
-5.339142 -11.474392 1.034933
-5.330111 -9.565708 0.702762
-6.767955 -13.257109 0.813947
-5.358365 -11.499960 0.573453
-6.903546 -11.382961 0.494906
-4.492265 -8.052146 0.254331
-4.118560 -8.059121 0.163508
-3.751164 -8.048431 0.077027
-4.876412 -8.033864 0.006397
-4.509613 -8.079264 -0.083007
-4.121184 -8.056621 -0.165227
-3.786050 -8.110339 -0.249698
-4.902050 -8.068481 -0.339582
-4.519560 -8.088457 -0.419610
-2.849517 -5.564372 -0.343716
-3.763334 -8.054707 -0.573832
-4.342495 -7.139062 -0.606152
-3.727024 -6.662716 -0.626983
-2.853765 -5.564765 -0.572556
-2.811511 -6.012036 -0.673104
-3.323892 -5.456110 -0.699241
-2.984937 -5.328898 -0.726491
-2.706716 -5.274169 -0.762466
-2.404717 -5.137957 -0.785660
-2.843785 -4.662709 -0.801517
-2.636563 -4.700606 -0.842534
-2.412202 -4.694242 -0.876281
-2.205115 -4.710199 -0.916764
-2.380224 -4.237349 -0.944356
-2.110519 -4.100464 -0.942208
-1.874797 -4.005174 -0.949340
-1.955306 -3.474787 -0.929233
-1.736286 -3.372509 -0.923425
-1.537723 -3.282389 -0.921372
-1.619064 -2.871970 -0.901745
-2.824632 -5.495954 0.563885
-5.378976 -11.467884 1.035830
-5.327197 -9.491873 0.698535
-2.833603 -5.508680 0.338749
-5.394471 -11.485274 0.573543
-6.955623 -11.389872 0.496132
-4.518417 -8.040940 0.254413
-2.836022 -5.507710 0.111919
-3.785193 -8.056795 0.077218
-4.915638 -8.042757 0.006416
-4.542710 -8.080209 -0.083160
-2.848662 -5.527042 -0.113529
-3.814745 -8.106825 -0.249949
-4.930431 -8.059372 -0.339834
-4.557092 -8.097188 -0.420786
-2.861996 -5.546730 -0.343167
-3.784201 -8.034998 -0.573252
-4.364898 -7.126556 -0.606224
-3.750872 -6.657328 -0.627556
-2.868081 -5.550675 -0.572009
-2.840123 -6.024980 -0.675526
-3.342694 -5.449276 -0.699677
-3.016398 -5.346526 -0.730152
-2.722884 -5.265840 -0.762466
-2.421737 -5.133243 -0.786071
-2.840990 -4.626140 -0.796726
-2.655345 -4.700237 -0.843924
-2.433396 -4.699960 -0.878738
-2.221237 -4.706974 -0.917458
-2.394179 -4.231736 -0.944738
-2.125796 -4.099188 -0.943409
-1.876645 -3.977297 -0.944092
-1.963556 -3.464535 -0.928098
-1.741256 -3.356816 -0.920586
-1.544062 -3.269769 -0.919155
-1.614532 -2.843503 -0.894358
-2.846975 -5.497875 0.564976
-5.417115 -11.457634 1.036400
-5.344016 -9.453767 0.696934
-2.848653 -5.496415 0.338530
-5.433957 -11.477700 0.573995
-6.995245 -11.376140 0.496466
-4.545034 -8.030520 0.254524
-2.850144 -5.493658 0.111811
-3.818453 -8.063220 0.077391
-4.952869 -8.048078 0.006432
-4.570434 -8.071455 -0.083214
-2.862841 -5.512953 -0.113419
-3.841312 -8.098697 -0.250060
-4.967189 -8.063778 -0.340661
-4.584376 -8.087514 -0.421012
-2.876697 -5.533494 -0.342892
-3.813970 -8.034169 -0.574025
-4.400353 -7.135203 -0.608105
-3.775214 -6.652724 -0.628211
-2.884637 -5.540966 -0.571918
-2.865853 -6.031515 -0.677241
-3.357307 -5.435612 -0.699241
-3.041618 -5.352787 -0.732278
-2.750025 -5.278573 -0.765527
-2.442579 -5.136523 -0.787718
-2.854129 -4.615719 -0.796435
-2.674639 -4.700656 -0.845469
-2.454192 -4.704718 -0.881031
-2.235667 -4.700137 -0.917458
-2.410553 -4.230341 -0.946073
-2.134278 -4.084831 -0.941608
-1.899757 -3.994478 -0.949550
-1.984315 -3.476257 -0.932864
-1.752896 -3.354041 -0.921296
-1.552420 -3.261516 -0.918170
-1.653894 -2.892125 -0.911243
-2.861526 -5.484700 0.564521
-5.453528 -11.443661 1.036645
-5.366081 -9.425186 0.696037
-2.862267 -5.481453 0.338148
-5.471726 -11.466384 0.574266
-7.072723 -11.423446 0.499475
-4.573610 -8.023485 0.254744
-2.863279 -5.477799 0.111667
-3.849634 -8.065004 0.077521
-4.985437 -8.045595 0.006443
-4.599139 -8.064344 -0.083286
-2.874179 -5.493513 -0.113200
-3.875194 -8.105813 -0.250646
-4.994538 -8.052748 -0.340840
-4.612633 -8.079484 -0.421329
-2.890417 -5.518451 -0.342508
-3.833001 -8.010728 -0.573188
-4.430115 -7.134379 -0.609191
-3.786210 -6.624670 -0.626655
-2.899310 -5.527681 -0.571462
-2.889930 -6.034359 -0.678553
-3.354544 -5.394053 -0.695216
-3.065917 -5.357220 -0.734168
-2.765285 -5.268355 -0.765272
-2.455757 -5.123646 -0.786894
-2.696908 -4.706144 -0.847940
-2.473203 -4.705899 -0.882669
-2.249225 -4.691480 -0.917111
-2.421077 -4.218668 -0.945119
-2.146344 -4.077397 -0.941408
-1.912848 -3.990394 -0.949969
-1.980409 -3.444823 -0.926055
-1.750956 -3.325435 -0.914909
-1.561999 -3.255864 -0.917924
-1.643503 -2.853603 -0.900690
-2.875095 -5.469724 0.563885
-5.493358 -11.436758 1.037541
-6.552102 -11.426679 0.845325
-2.876745 -5.468228 0.337875
-5.540652 -11.519764 0.577788
-7.116724 -11.416110 0.500107
-4.604176 -8.019819 0.255075
-2.877742 -5.464566 0.111576
-3.875659 -8.055858 0.077547
-5.014861 -8.037898 0.006449
-4.632325 -8.064937 -0.083438
-2.884026 -5.471402 -0.112926
-3.902214 -8.098388 -0.250786
-5.034042 -8.061121 -0.341847
-4.641880 -8.073089 -0.421736
-2.904072 -5.503376 -0.342124
-3.866229 -8.016908 -0.574476
-4.457799 -7.130057 -0.609987
-3.811489 -6.621660 -0.627474
-2.916255 -5.518760 -0.571462
-2.917944 -6.045177 -0.680772
-3.397455 -5.425863 -0.700656
-3.091760 -5.364135 -0.736412
-2.775871 -5.249325 -0.763741
-2.467156 -5.107168 -0.785523
-2.711333 -4.697847 -0.847940
-2.494553 -4.711366 -0.885126
-2.264036 -4.685444 -0.917284
-2.431552 -4.206971 -0.944165
-2.156548 -4.066465 -0.940407
-1.928909 -3.992430 -0.951858
-1.978768 -3.417660 -0.920381
-1.758418 -3.314898 -0.913490
-1.599404 -3.307771 -0.933937
-2.890465 -5.458238 0.563612
-6.817805 -14.083287 1.279526
-6.592617 -11.416030 0.846030
-2.892105 -5.456730 0.337711
-5.614751 -11.582716 0.581806
-7.158089 -11.404380 0.500552
-4.631761 -8.010848 0.255241
-2.893556 -5.453945 0.111540
-3.908209 -8.060126 0.077703
-5.049072 -8.037717 0.006461
-4.668061 -8.069730 -0.083635
-2.905019 -5.470475 -0.113091
-3.930098 -8.092672 -0.250981
-5.068325 -8.060866 -0.342494
-4.677640 -8.077829 -0.422731
-2.918130 -5.489150 -0.341794
-3.880773 -7.984365 -0.572995
-4.489216 -7.131540 -0.611289
-3.829786 -6.606487 -0.627146
-2.936448 -5.515941 -0.572101
-2.942570 -6.048721 -0.682185
-3.431579 -5.443163 -0.704246
-3.110695 -5.358918 -0.737002
-2.793362 -5.243410 -0.764124
-2.479344 -5.092450 -0.784425
-2.734174 -4.704028 -0.850566
-2.511781 -4.708913 -0.886109
-2.281418 -4.684674 -0.918500
-2.441485 -4.194401 -0.943021
-2.170860 -4.063286 -0.941207
-1.931732 -3.967154 -0.947241
-1.968150 -3.375396 -0.910621
-1.767664 -3.307773 -0.913017
-1.592562 -3.267999 -0.924082
-1.552222 -2.902795 -0.935133
-2.907197 -5.449344 0.563612
-6.246511 -12.802886 1.164931
-6.626105 -11.393162 0.845837
-2.908833 -5.447832 0.337711
-5.666923 -11.599544 0.583522
-7.187171 -11.373074 0.500144
-4.661347 -8.005239 0.255516
-2.913574 -5.451215 0.111667
-3.939065 -8.060675 0.077825
-5.083329 -8.037401 0.006473
-4.699844 -8.067467 -0.083761
-2.928391 -5.473879 -0.113346
-3.957104 -8.085066 -0.251120
-5.298291 -8.369522 -0.356297
-4.708439 -8.073795 -0.423274
-2.934014 -5.478412 -0.341685
-3.902616 -7.967045 -0.572608
-4.506803 -7.110994 -0.610710
-3.851544 -6.597288 -0.627392
-2.957122 -5.513926 -0.572830
-2.965055 -6.047705 -0.683093
-3.455721 -5.444360 -0.705769
-3.124114 -5.344206 -0.736294
-2.810842 -5.237437 -0.764507
-2.488847 -5.072370 -0.782505
-2.754083 -4.704997 -0.852265
-2.526683 -4.702054 -0.886272
-2.297516 -4.681189 -0.919194
-2.451859 -4.182657 -0.942067
-2.181459 -4.053156 -0.940407
-1.948201 -3.969986 -0.949340
-1.985893 -3.381940 -0.914025
-1.780106 -3.306612 -0.914200
-1.602153 -3.262228 -0.923836
-1.499533 -2.783690 -0.898242
-2.920601 -5.434259 0.562976
-6.273447 -12.758618 1.162649
-6.666071 -11.381391 0.846478
-2.926479 -5.440641 0.337820
-5.708220 -11.593754 0.584109
-7.263872 -11.416733 0.503042
-4.689930 -7.997798 0.255737
-2.931707 -5.444891 0.111721
-3.974380 -8.070083 0.078033
-5.530136 -8.684766 0.007008
-4.729127 -8.060772 -0.083842
-2.948966 -5.471911 -0.113492
-3.993829 -8.097093 -0.251873
-5.296551 -8.310248 -0.354464
-4.738752 -8.068788 -0.423772
-2.952230 -5.472021 -0.341849
-3.932341 -7.965772 -0.573381
-4.532353 -7.103020 -0.611216
-3.880858 -6.600906 -0.628865
-2.976865 -5.510085 -0.573377
-2.984917 -6.041256 -0.683396
-3.474013 -5.436245 -0.706096
-3.145533 -5.343153 -0.737475
-2.827369 -5.229661 -0.764634
-2.497812 -5.051392 -0.780447
-2.769508 -4.698228 -0.852574
-2.543445 -4.698618 -0.887091
-2.314486 -4.679414 -0.920236
-2.460189 -4.167507 -0.940350
-2.193884 -4.046445 -0.940407
-1.956905 -3.956980 -0.947661
-1.788390 -3.297719 -0.913254
-1.615163 -3.263378 -0.925561
-1.510819 -2.784150 -0.899881
-2.934415 -5.420019 0.562431
-6.294416 -12.702697 1.159308
-2.947438 -5.439538 0.338312
-5.747759 -11.584241 0.584515
-7.271913 -11.352320 0.501184
-4.720544 -7.993701 0.256068
-2.948874 -5.436750 0.111739
-4.008455 -8.076661 0.078215
-5.425068 -8.462345 0.006842
-4.761464 -8.059139 -0.083976
-2.966693 -5.464595 -0.113529
-4.025326 -8.098229 -0.252291
-5.332276 -8.309940 -0.355147
-4.768061 -8.061950 -0.424179
-2.971865 -5.468201 -0.342179
-3.958984 -7.958138 -0.573703
-4.561671 -7.100829 -0.612229
-3.911754 -6.606978 -0.630584
-2.998516 -5.509673 -0.574289
-3.003881 -6.032960 -0.683497
-3.492289 -5.428070 -0.706422
-3.166468 -5.341166 -0.738538
-2.845297 -5.224446 -0.765145
-2.496068 -5.009129 -0.775097
-2.783909 -4.689709 -0.852574
-2.564932 -4.703784 -0.889548
-2.330589 -4.675818 -0.920930
-2.464937 -4.146439 -0.937299
-2.210514 -4.047434 -0.942208
-1.979938 -3.972834 -0.952908
-1.804554 -3.303302 -0.916329
-1.616084 -3.240194 -0.920387
-1.529504 -2.798071 -0.905893
-2.951506 -5.411865 0.562522
-5.769215 -11.553561 1.056043
-2.967940 -5.437481 0.338749
-5.774783 -11.549576 0.583658
-7.385239 -11.451731 0.506571
-4.761907 -8.007534 0.256978
-2.965061 -5.426800 0.111721
-4.040819 -8.079529 0.078363
-5.586575 -8.655712 0.007012
-4.796904 -8.062540 -0.084165
-2.982485 -5.453713 -0.113492
-4.055525 -8.096566 -0.252626
-5.750900 -8.902127 -0.381208
-4.802996 -8.064450 -0.425084
-3.004450 -5.487960 -0.343990
-3.988747 -7.956660 -0.574476
-4.594267 -7.103550 -0.613676
-3.944765 -6.616347 -0.632631
-3.014926 -5.499575 -0.574197
-3.021930 -6.022827 -0.683396
-3.507304 -5.414827 -0.706096
-3.171132 -5.311816 -0.735821
-2.863697 -5.220040 -0.765783
-2.520314 -5.019151 -0.777840
-2.797270 -4.679450 -0.852265
-2.586475 -4.708863 -0.892005
-2.349785 -4.678326 -0.922840
-2.224338 -4.043208 -0.942809
-1.995189 -3.972857 -0.954377
-1.823112 -3.313073 -0.920586
-1.621665 -3.226561 -0.917924
-1.565920 -2.843924 -0.922289
-2.970014 -5.406275 0.562885
-5.805082 -11.536697 1.056124
-2.984127 -5.427475 0.338694
-6.316772 -12.537247 0.634546
-7.463327 -11.495233 0.509506
-4.793641 -8.004894 0.257364
-2.982178 -5.418554 0.111739
-4.071438 -8.078703 0.078475
-5.621821 -8.651948 0.007023
-4.827270 -8.057221 -0.084263
-2.996309 -5.439283 -0.113383
-4.083948 -8.091225 -0.252849
-5.770011 -8.871875 -0.380669
-4.833367 -8.059100 -0.425582
-3.019826 -5.476094 -0.343826
-4.023488 -7.964871 -0.575958
-4.626924 -7.106139 -0.615123
-3.959402 -6.594814 -0.631730
-3.030341 -5.487684 -0.573924
-3.040393 -6.013527 -0.683396
-3.520099 -5.398212 -0.705334
-3.183321 -5.295253 -0.734876
-2.882577 -5.216439 -0.766548
-2.516470 -4.973390 -0.771941
-2.809575 -4.667460 -0.851647
-2.600910 -4.700906 -0.892005
-2.365906 -4.674609 -0.923534
-2.239106 -4.040650 -0.943810
-2.010017 -3.971952 -0.955636
-1.842688 -3.324460 -0.925317
-1.637686 -3.233675 -0.921372
-1.553642 -2.801252 -0.909992
-6.699975 -13.214035 1.211552
-2.992056 -5.402571 0.337711
-6.368320 -12.543640 0.635855
-7.683904 -11.755847 0.522099
-4.825920 -8.002989 0.257777
-3.000727 -5.412877 0.111811
-4.103448 -8.080439 0.078614
-5.660382 -8.653071 0.007038
-4.858682 -8.053504 -0.084380
-3.002310 -5.410831 -0.112981
-4.110112 -8.081331 -0.252933
-5.790634 -8.844098 -0.380237
-4.863750 -8.053640 -0.426079
-3.035158 -5.464185 -0.343661
-2.844217 -5.587732 -0.404690
-4.663466 -7.114432 -0.617077
-3.981679 -6.586048 -0.632058
-3.145911 -5.655896 -0.592523
-2.869599 -5.632733 -0.641119
-3.568830 -5.436416 -0.711753
-3.198523 -5.283763 -0.734640
-2.906285 -5.221437 -0.768589
-2.530817 -4.963882 -0.771667
-2.822345 -4.656284 -0.851184
-2.610998 -4.685148 -0.890531
-2.386053 -4.678734 -0.925791
-2.248627 -4.028628 -0.942609
-2.017308 -3.956185 -0.953328
-1.862352 -3.335758 -0.930047
-1.646718 -3.226909 -0.920880
-1.550969 -2.776317 -0.903434
-2.813347 -5.513324 0.733907
-2.805021 -5.490378 0.504181
-5.278821 -9.463025 0.592537
-6.382206 -12.476018 0.633417
-7.718836 -11.730549 0.522025
-4.860308 -8.004381 0.258301
-4.508918 -8.074915 0.167084
-4.125942 -8.063361 0.078571
-5.703402 -8.660719 0.007059
-4.888039 -8.046252 -0.084461
-4.522246 -8.091483 -0.169243
-2.853846 -5.568903 -0.174571
-5.811139 -8.816279 -0.379806
-4.900373 -8.058312 -0.427120
-4.522771 -8.083805 -0.509288
-2.856792 -5.570100 -0.404046
-4.685271 -7.100091 -0.617077
-3.994092 -6.561031 -0.630830
-3.458205 -6.172701 -0.647773
-2.867330 -5.585844 -0.636780
-3.219370 -5.281556 -0.735703
-2.919866 -5.208170 -0.767951
-2.550107 -4.964024 -0.772902
-2.833014 -4.641700 -0.850102
-2.627291 -4.680557 -0.891186
-2.408047 -4.686283 -0.928742
-2.263377 -4.025981 -0.943609
-2.027201 -3.945629 -0.952278
-1.858289 -3.304622 -0.922951
-1.655724 -3.220118 -0.920387
-1.558065 -2.769031 -0.902614
-2.829340 -5.502901 0.733671
-2.837361 -5.511876 0.506953
-5.307828 -9.446785 0.592537
-2.836752 -5.503609 0.279863
-7.765273 -11.722642 0.522731
-4.908828 -8.028663 0.259569
-4.535141 -8.063657 0.167139
-2.854782 -5.537165 0.054040
-5.737129 -8.654016 0.007067
-4.915832 -8.036336 -0.084515
-4.549501 -8.081927 -0.169335
-2.869542 -5.557457 -0.174487
-5.833187 -8.790914 -0.379482
-4.935506 -8.060279 -0.428025
-4.555393 -8.083809 -0.510166
-2.864247 -5.542692 -0.402694
-4.702065 -7.078206 -0.616426
-4.017327 -6.553845 -0.631321
-3.479084 -6.165531 -0.648137
-2.874855 -5.558463 -0.634661
-3.238156 -5.275886 -0.736294
-2.940220 -5.206960 -0.769099
-2.550299 -4.927147 -0.768374
-2.649892 -4.687073 -0.893970
-2.429205 -4.691991 -0.931346
-2.293580 -4.050563 -0.951016
-2.035701 -3.932445 -0.950599
-1.863631 -3.290451 -0.920586
-1.667379 -3.218466 -0.921372
-1.558964 -2.750847 -0.898242
-2.843012 -5.488023 0.732847
-2.854717 -5.504030 0.507034
-5.333835 -9.425243 0.592209
-2.849480 -5.486901 0.279457
-7.830031 -11.741996 0.524663
-4.942346 -8.028036 0.260038
-4.563801 -8.056665 0.167283
-2.863459 -5.512408 0.053884
-5.777530 -8.657168 0.007084
-4.946233 -8.030582 -0.084613
-4.577234 -8.073150 -0.169444
-2.883811 -5.543307 -0.174320
-5.860130 -8.772976 -0.379482
-4.969124 -8.059555 -0.428794
-4.583623 -8.075874 -0.510550
-2.876630 -5.525027 -0.402050
-4.722095 -7.061260 -0.616209
-4.050502 -6.562692 -0.633367
-3.500936 -6.160023 -0.648684
-2.886378 -5.539030 -0.633450
-3.263201 -5.280287 -0.738302
-2.959613 -5.203951 -0.769992
-2.570900 -4.929839 -0.770021
-2.671093 -4.690923 -0.896264
-2.444955 -4.687136 -0.931867
-2.305025 -4.041805 -0.950615
-2.047756 -3.926181 -0.950599
-1.867940 -3.274590 -0.917748
-1.673209 -3.205602 -0.919155
-1.546415 -2.709293 -0.886218
-2.858917 -5.477514 0.732612
-2.869282 -5.490829 0.506627
-5.364210 -9.411437 0.592373
-2.874173 -5.493181 0.280224
-7.866575 -11.718748 0.524700
-4.972746 -8.022181 0.260341
-4.592461 -8.049574 0.167428
-2.874793 -5.492965 0.053780
-5.813543 -8.653514 0.007096
-4.985076 -8.038314 -0.084855
-4.612392 -8.077302 -0.169827
-2.896163 -5.525580 -0.174041
-5.893709 -8.764909 -0.379914
-5.003311 -8.059549 -0.429608
-4.613828 -8.071309 -0.511154
-2.896811 -5.522362 -0.402501
-4.760445 -7.071561 -0.618379
-4.072195 -6.552774 -0.633613
-3.522786 -6.154439 -0.649231
-2.909370 -5.541599 -0.634762
-3.283582 -5.276996 -0.739246
-2.975564 -5.194846 -0.769992
-2.591541 -4.932451 -0.771667
-2.689398 -4.689552 -0.897574
-2.466654 -4.693561 -0.934644
-2.313999 -4.028767 -0.949214
-2.046148 -3.893915 -0.944302
-1.877493 -3.268001 -0.917511
-1.678976 -3.192734 -0.916938
-2.875246 -5.467838 0.732494
-2.881007 -5.472299 0.505730
-5.159533 -8.276412 0.625908
-6.573675 -11.451620 0.722052
-2.887286 -5.477268 0.279863
-6.306774 -9.333125 0.418749
-5.008448 -8.024695 0.260921
-4.624108 -8.047583 0.167680
-2.889300 -5.479697 0.053737
-5.831661 -8.623211 0.007086
-5.020837 -8.040794 -0.085044
-4.639644 -8.067447 -0.169919
-2.909368 -5.509597 -0.173818
-5.922253 -8.749268 -0.380022
-5.034368 -8.054326 -0.430151
-4.643052 -8.064904 -0.511648
-2.910476 -5.507272 -0.402050
-4.792749 -7.072611 -0.619754
-4.093865 -6.542784 -0.633858
-3.546625 -6.152229 -0.650143
-2.926823 -5.533527 -0.634863
-3.307664 -5.279519 -0.741018
-2.990992 -5.184833 -0.769865
-2.615002 -4.940235 -0.774136
-2.706733 -4.686405 -0.898557
-2.479659 -4.683360 -0.934123
-2.325367 -4.019953 -0.948814
-2.068606 -3.907494 -0.949130
-1.881185 -3.251293 -0.914436
-1.691939 -3.193562 -0.918663
-2.895914 -5.459913 0.505404
-6.609777 -11.433127 0.722161
-2.898454 -5.457797 0.279321
-6.287042 -9.242674 0.415554
-5.035703 -8.013524 0.261058
-4.655286 -8.044609 0.167915
-2.903752 -5.466392 0.053693
-5.871032 -8.624293 0.007102
-5.051868 -8.035511 -0.085152
-4.673893 -8.069613 -0.170266
-2.922032 -5.492702 -0.173567
-5.946253 -8.726928 -0.379842
-5.086191 -8.081963 -0.432458
-4.671280 -8.056668 -0.512033
-2.926890 -5.497436 -0.401985
-4.833534 -7.085887 -0.622214
-4.115513 -6.532723 -0.634104
-3.564983 -6.140458 -0.650052
-2.944721 -5.526277 -0.635065
-3.325436 -5.271866 -0.741372
-3.002401 -5.167915 -0.768717
-2.634341 -4.940056 -0.775371
-2.727050 -4.688311 -0.900522
-2.498651 -4.684420 -0.935859
-2.330291 -4.000101 -0.945811
-2.092087 -3.922696 -0.954377
-1.897510 -3.256420 -0.917511
-1.717701 -3.218282 -0.927285
-2.908893 -5.443970 0.504752
-6.649344 -11.420561 0.722653
-2.918954 -5.455925 0.279682
-6.334000 -9.250552 0.416780
-7.221086 -11.413337 0.372535
-4.685483 -8.039790 0.168114
-2.918622 -5.453931 0.053658
-5.901420 -8.612014 0.007106
-5.083450 -8.030959 -0.085268
-4.706185 -8.068191 -0.170539
-2.937925 -5.481950 -0.173511
-5.990522 -8.734192 -0.380956
-5.122190 -8.084041 -0.433408
-4.715107 -8.075065 -0.514119
-2.947515 -5.495466 -0.402501
-4.866542 -7.087469 -0.623661
-4.133934 -6.517542 -0.633858
-3.583805 -6.129492 -0.650052
-2.958368 -5.511081 -0.634358
-3.340529 -5.259963 -0.741136
-3.017741 -5.157823 -0.768589
-2.651360 -4.935441 -0.775920
-2.740922 -4.679072 -0.900358
-2.511612 -4.674130 -0.935339
-2.331149 -3.973497 -0.941207
-2.107351 -3.922289 -0.955846
-1.717928 -3.195071 -0.922112
-2.924164 -5.432388 0.504508
-6.697987 -11.423364 0.724127
-2.926674 -5.430236 0.278824
-6.353276 -9.217910 0.416186
-7.267345 -11.408834 0.373114
-4.715187 -8.034001 0.168295
-2.936764 -5.447591 0.053684
-5.936899 -8.607039 0.007117
-7.320574 -11.487086 -0.122201
-4.739525 -8.068370 -0.170850
-2.955205 -5.473790 -0.173539
-6.021264 -8.721530 -0.381208
-5.172756 -8.108714 -0.435580
-4.749981 -8.077775 -0.515217
-2.967207 -5.491665 -0.402887
-4.889964 -7.074967 -0.623878
-4.179657 -6.545148 -0.637787
-3.604614 -6.121901 -0.650417
-2.977628 -5.506355 -0.634863
-3.349697 -5.238813 -0.739601
-3.039089 -5.157940 -0.769992
-2.671675 -4.936866 -0.777429
-2.752257 -4.665542 -0.899376
-2.534379 -4.681992 -0.938463
-2.341335 -3.962952 -0.940407
-2.120305 -3.917524 -0.956266
-1.730492 -3.194899 -0.923590
-2.942242 -5.426019 0.504752
-6.732494 -11.401902 0.724072
-2.957619 -5.447569 0.280179
-6.362729 -9.171281 0.414960
-7.311487 -11.400789 0.373583
-4.753040 -8.041876 0.168764
-2.954418 -5.440314 0.053702
-5.985519 -8.620820 0.007144
-7.359561 -11.470464 -0.122264
-4.765783 -8.056373 -0.170905
-2.975327 -5.470845 -0.173734
-6.044572 -8.698092 -0.380992
-5.207866 -8.108777 -0.436439
-4.783391 -8.077770 -0.516150
-2.989767 -5.493054 -0.403660
-4.905382 -7.050925 -0.623082
-4.206186 -6.542354 -0.638769
-3.623886 -6.111670 -0.650508
-2.997839 -5.503309 -0.635569
-3.364141 -5.226007 -0.739246
-3.052874 -5.145180 -0.769482
-2.683964 -4.923428 -0.776606
-2.759504 -4.645203 -0.897082
-2.558161 -4.691487 -0.941935
-2.129974 -3.906709 -0.955217
-1.745856 -3.199784 -0.926546
-1.483217 -2.719551 -0.914883
-2.963175 -5.424839 0.505486
-6.799083 -11.434404 0.727458
-2.973360 -5.436717 0.280089
-7.363238 -11.404337 0.374437
-4.787406 -8.043581 0.169107
-2.969655 -5.428592 0.053676
-6.012512 -8.603236 0.007144
-7.438123 -11.515028 -0.122982
-4.790989 -8.042573 -0.170923
-2.992578 -5.462568 -0.173762
-6.064354 -8.669680 -0.380561
-5.223498 -8.078500 -0.435670
-4.810196 -8.066487 -0.516370
-3.009483 -5.489106 -0.404046
-4.922985 -7.030124 -0.622576
-4.232195 -6.538622 -0.639670
-3.656404 -6.123609 -0.652970
-3.016145 -5.496703 -0.635872
-3.382319 -5.218995 -0.739719
-3.069154 -5.136641 -0.769610
-2.699056 -4.915171 -0.776606
-2.760575 -4.614704 -0.892824
-2.581076 -4.699154 -0.945060
-2.140537 -3.897585 -0.954587
-1.747262 -3.179125 -0.922112
-1.483241 -2.699858 -0.909784
-2.979804 -5.415723 0.505486
-6.821307 -11.392074 0.726093
-2.994846 -5.436319 0.280540
-7.476096 -11.501546 0.378380
-4.822341 -8.046007 0.169469
-2.984848 -5.416829 0.053650
-6.036577 -8.581478 0.007142
-7.662037 -11.782204 -0.126086
-4.799182 -8.000399 -0.170339
-3.006908 -5.448985 -0.173623
-6.097828 -8.660839 -0.380992
-5.252617 -8.069134 -0.436032
-4.840061 -8.060252 -0.516919
-3.026310 -5.479847 -0.404046
-2.589773 -3.674206 -0.326083
-4.263661 -6.543142 -0.641389
-3.674147 -6.110655 -0.652787
-3.040213 -5.500485 -0.637385
-3.084899 -5.127201 -0.769610
-2.713164 -4.905133 -0.776331
-2.769121 -4.596918 -0.891022
-2.596911 -4.693798 -0.945581
-2.143966 -3.875600 -0.950809
-1.740109 -3.143224 -0.913243
-1.491517 -2.695294 -0.909784
-6.885614 -11.419834 0.729205
-3.004239 -5.414003 0.279863
-7.684311 -11.742872 0.387093
-4.857336 -8.048295 0.169830
-2.999511 -5.404148 0.053615
-6.060564 -8.559652 0.007139
-7.724438 -11.798799 -0.126516
-4.834044 -8.002755 -0.170704
-3.015355 -5.424881 -0.173149
-6.123215 -8.640460 -0.380920
-5.278444 -8.054652 -0.436123
-4.866833 -8.048782 -0.517138
-3.037286 -5.460072 -0.403273
-4.289182 -6.538364 -0.642207
-3.705256 -6.119799 -0.654975
-3.080787 -5.533726 -0.642330
-3.100614 -5.117713 -0.769610
-2.732539 -4.904574 -0.777566
-2.614655 -4.691831 -0.946796
-2.163460 -3.882669 -0.954167
-1.777120 -3.186966 -0.927531
-1.497445 -2.686517 -0.908368
-6.932536 -11.418286 0.730461
-7.736799 -11.744285 0.387920
-4.891870 -8.049590 0.170173
-4.521432 -8.087580 0.080375
-6.088538 -8.543462 0.007141
-7.804072 -11.841005 -0.127225
-4.863249 -7.995575 -0.170868
-4.528199 -8.088082 -0.258594
-6.152016 -8.624888 -0.381064
-5.313032 -8.053431 -0.436937
-4.908120 -8.061105 -0.518895
-4.408602 -7.868340 -0.582141
-4.309221 -6.525174 -0.642207
-3.724532 -6.109253 -0.655066
-3.372197 -6.013672 -0.699237
-3.123016 -5.119183 -0.771268
-2.752905 -4.905670 -0.779075
-2.632893 -4.690657 -0.948185
-2.186846 -3.896477 -0.959205
-1.756515 -3.127418 -0.911765
-1.496759 -2.666022 -0.902987
-6.976388 -11.411446 0.731389
-5.310799 -9.433797 0.489331
-7.792683 -11.750484 0.388913
-4.922284 -8.043924 0.170372
-4.551129 -8.082384 0.080462
-6.127543 -8.542619 0.007156
-7.817144 -11.782011 -0.126848
-4.894545 -7.991701 -0.171105
-4.553974 -8.075893 -0.258650
-6.173202 -8.598667 -0.380740
-5.348768 -8.053736 -0.437842
-4.937525 -8.053670 -0.519389
-4.439588 -7.866945 -0.583043
-4.335841 -6.521882 -0.643189
-3.750030 -6.108830 -0.656252
-3.393077 -6.007629 -0.699742
-3.144936 -5.119719 -0.772799
-2.773791 -4.907549 -0.780721
-2.655996 -4.697989 -0.951309
-2.196385 -3.885493 -0.958155
-1.765624 -3.121171 -0.911518
-1.495962 -2.645555 -0.897605
-7.020264 -11.404444 0.732317
-5.337745 -9.413984 0.489151
-7.838686 -11.741486 0.389409
-4.957428 -8.045810 0.170733
-4.579357 -8.074472 0.080522
-6.168941 -8.544859 0.007174
-7.877136 -11.793729 -0.127234
-4.938983 -8.008986 -0.171799
-4.581197 -8.066230 -0.258789
-6.198383 -8.578067 -0.380669
-5.382335 -8.050576 -0.438566
-4.988435 -8.080966 -0.522134
-4.476523 -7.875844 -0.584718
-4.357493 -6.511034 -0.643435
-3.762471 -6.087132 -0.655158
-3.414444 -6.002380 -0.700347
-3.164802 -5.116795 -0.773819
-2.790305 -4.901598 -0.781133
-2.673320 -4.694953 -0.952351
-2.208779 -3.879586 -0.958365
-1.777110 -3.119107 -0.912504
-1.497427 -2.629286 -0.893639
-5.374033 -9.410576 0.489828
-7.899763 -11.754717 0.390650
-4.986833 -8.038209 0.170896
-4.606091 -8.063858 0.080557
-6.195128 -8.525894 0.007174
-7.926672 -11.789423 -0.127449
-4.975662 -8.013332 -0.172219
-4.613864 -8.066020 -0.259235
-6.227610 -8.563052 -0.380848
-5.412028 -8.041484 -0.438973
-5.001607 -8.046967 -0.520926
-4.500665 -7.862074 -0.584718
-4.388028 -6.513340 -0.644990
-3.786390 -6.084015 -0.656069
-3.438283 -6.001373 -0.701457
-3.177339 -5.102010 -0.773054
-2.811734 -4.904186 -0.782916
-2.689181 -4.689292 -0.952872
-2.218725 -3.869399 -0.957526
-1.783777 -3.108597 -0.911026
-6.599700 -11.474970 0.598333
-7.962675 -11.770167 0.391974
-5.014119 -8.027112 0.170986
-4.637292 -8.060956 0.080670
-6.238375 -8.530255 0.007193
-6.559911 -9.692273 -0.104995
-5.018773 -8.027702 -0.172858
-4.652560 -8.076079 -0.260016
-6.256803 -8.547937 -0.381028
-5.445639 -8.038074 -0.439697
-5.043751 -8.059516 -0.522738
-4.524266 -7.847365 -0.584653
-4.411347 -6.504796 -0.645481
-3.803452 -6.069838 -0.655796
-3.465629 -6.006307 -0.703273
-3.177697 -5.067869 -0.769354
-2.827758 -4.897252 -0.783190
-2.707003 -4.686989 -0.954087
-2.232542 -3.865960 -0.958365
-1.779243 -3.078775 -0.903881
-6.635875 -11.456399 0.598423
-8.000435 -11.748161 0.392056
-5.041916 -8.016770 0.171094
-4.672026 -8.063997 0.080843
-6.282892 -8.536043 0.007215
-6.581170 -9.659706 -0.104861
-5.050835 -8.024113 -0.173113
-4.684338 -8.073872 -0.260406
-6.269958 -8.511001 -0.380237
-5.474777 -8.027933 -0.440059
-5.080164 -8.062589 -0.523946
-4.571871 -7.874008 -0.587680
-4.434654 -6.496171 -0.645972
-3.820462 -6.055614 -0.655522
-3.493537 -6.011990 -0.705190
-3.157756 -5.001904 -0.760807
-2.845757 -4.893691 -0.784014
-2.720874 -4.677811 -0.953913
-2.240951 -3.853176 -0.956896
-5.346659 -9.165702 0.479623
-6.344261 -9.255009 0.309504
-5.064883 -7.998729 0.171040
-4.710351 -8.072944 0.081078
-6.324527 -8.537619 0.007232
-6.603423 -9.628749 -0.104744
-5.467740 -8.627612 -0.186494
-4.722702 -8.082765 -0.261159
-2.725427 -3.675894 -0.164597
-5.511253 -8.028394 -0.441009
-5.115039 -8.062985 -0.524989
-4.597014 -7.861668 -0.587809
-4.455692 -6.484178 -0.646136
-3.844361 -6.052271 -0.656434
-3.511463 -6.000385 -0.705089
-3.171490 -4.989682 -0.760425
-2.867264 -4.896050 -0.785797
-2.729738 -4.660094 -0.952004
-2.249797 -3.841221 -0.955636
-6.714648 -11.430108 0.599190
-6.370354 -9.232210 0.309393
-7.285542 -11.427990 0.244846
-4.744721 -8.074836 0.081242
-6.357265 -8.526994 0.007240
-6.561922 -9.505579 -0.103623
-5.485041 -8.596467 -0.186184
-4.756095 -8.082885 -0.261633
-2.733703 -3.663510 -0.164417
-5.544376 -8.023775 -0.441687
-5.144051 -8.053987 -0.525428
-4.617567 -7.841508 -0.587358
-4.484635 -6.483592 -0.647446
-3.869886 -6.051354 -0.657619
-3.534907 -5.998155 -0.706098
-2.880762 -4.884670 -0.785385
-2.743521 -4.650849 -0.951830
-2.273493 -3.854512 -0.960674
-6.753752 -11.416332 0.599552
-6.351319 -9.144478 0.307105
-7.330290 -11.420730 0.245171
-4.780675 -8.079175 0.081433
-6.389998 -8.516249 0.007247
-6.581354 -9.471443 -0.103470
-5.511929 -8.580441 -0.186202
-4.788005 -8.080295 -0.262024
-2.723926 -3.627138 -0.163159
-5.584368 -8.028871 -0.442909
