6.645772 2.620034 0.526974
5.959341 2.604485 0.417379
5.334092 2.565907 0.323679
4.887160 2.571409 0.249610
6.612636 2.604570 0.264207
7.812201 3.409394 0.235112
7.184302 3.452225 0.144000
6.560445 3.450941 0.064302
8.506267 3.346828 0.006222
8.335266 3.635591 -0.081581
7.732724 3.712101 -0.156611
7.261139 3.813861 -0.228811
8.512403 3.345126 -0.328978
8.238045 3.588738 -0.406942
10.198170 4.889947 -0.621828
10.001751 5.249116 -0.729061
9.600351 3.766855 -0.748104
6.777499 2.646061 2.223856
6.101919 2.652885 1.955251
5.520103 2.652328 1.734026
5.042199 2.659529 1.555445
6.779597 2.649471 1.920455
6.074973 2.641170 1.675954
5.506265 2.640594 1.482216
5.029063 2.645424 1.321292
6.752801 2.641310 1.625705
6.073861 2.639048 1.415492
5.503720 2.636893 1.242516
5.015117 2.633732 1.097706
6.710855 2.624903 1.337365
6.060113 2.632069 1.159528
5.464397 2.616294 1.003619
5.000370 2.621201 0.880567
6.705977 2.623399 1.063715
6.044167 2.622761 0.908279
5.471162 2.616013 0.777085
6.698779 2.620584 0.795654
6.031322 2.614936 0.661598
5.479657 2.617607 0.554161
6.698367 2.617053 0.530505
5.994772 2.598095 0.419300
5.353654 2.555121 0.324388
4.910965 2.564728 0.250423
6.741613 2.631508 0.269037
7.862072 3.402482 0.236298
7.238180 3.450821 0.144867
6.591389 3.441442 0.064501
8.519290 3.321805 0.006224
8.351887 3.612384 -0.081635
7.597842 3.618711 -0.153653
7.301170 3.806353 -0.229703
8.517970 3.317181 -0.328798
8.219670 3.550770 -0.405495
10.175255 4.840621 -0.619523
10.047014 5.233620 -0.731187
9.606285 3.735215 -0.747669
6.872991 2.659072 2.252502
6.165535 2.658082 1.973013
5.570773 2.655668 1.747375
5.092215 2.665973 1.568344
6.835482 2.647166 1.933976
6.142693 2.648234 1.692388
5.544176 2.637884 1.490236
5.058741 2.641253 1.326954
6.815462 2.641739 1.638832
6.115159 2.634718 1.423226
5.526829 2.627147 1.245907
5.045808 2.630131 1.102652
6.778466 2.627399 1.349226
6.093489 2.624374 1.164368
5.535668 2.629572 1.015223
5.040819 2.622722 0.886268
6.803465 2.637498 1.077890
6.081304 2.616735 0.912649
5.533828 2.625147 0.784838
6.769806 2.624450 0.803130
6.086848 2.616855 0.666805
5.517359 2.614858 0.557160
6.751005 2.613774 0.534037
6.044891 2.597816 0.422246
5.391248 2.552786 0.326190
4.935662 2.558384 0.251281
6.800915 2.630641 0.271080
8.095696 3.474138 0.242998
7.279463 3.443134 0.145481
6.648083 3.445128 0.064952
8.514517 3.289886 0.006213
8.491591 3.641924 -0.082891
7.314207 3.456131 -0.147702
7.411359 3.834927 -0.232799
8.525310 3.289953 -0.328691
8.212160 3.517668 -0.404590
10.202699 4.815348 -0.620291
10.142804 5.244020 -0.736984
9.604669 3.700706 -0.746657
6.941838 2.661252 2.272379
6.210714 2.654993 1.984855
5.608467 2.652551 1.756638
5.132044 2.666797 1.578084
6.907665 2.650778 1.952088
6.172183 2.638522 1.698274
5.607607 2.646996 1.505096
5.107465 2.646784 1.337599
6.898229 2.649506 1.656771
6.158285 2.630929 1.431377
5.567656 2.625643 1.253289
5.083500 2.629977 1.109120
6.866347 2.637260 1.365101
6.153143 2.627716 1.174221
5.579406 2.629399 1.021760
5.069912 2.618125 0.889967
6.849387 2.631158 1.083882
6.138506 2.619059 0.920024
5.562498 2.617872 0.787761
5.077475 2.618664 0.677389
6.818650 2.619351 0.807967
6.125967 2.611434 0.670210
5.565910 2.616987 0.561250
5.133642 2.644457 0.472232
6.814860 2.614483 0.538451
6.136377 2.614859 0.428074
5.438820 2.554914 0.328593
4.956812 2.550084 0.251958
6.823884 2.615486 0.271674
8.107236 3.449675 0.243026
7.383222 3.464532 0.147341
6.708419 3.450328 0.065438
8.508693 3.257670 0.006202
8.621431 3.666336 -0.084048
8.118723 3.805858 -0.163712
7.465772 3.834091 -0.234137
8.529762 3.261641 -0.328475
12.260351 5.207249 -0.603243
10.216520 4.783600 -0.620236
10.222770 5.245680 -0.741621
9.608524 3.668376 -0.746078
6.979472 2.651148 2.282025
6.278898 2.661387 2.004027
5.670584 2.660672 1.773528
5.169353 2.666074 1.587033
6.970895 2.650536 1.967650
6.238267 2.644165 1.714217
5.656185 2.648738 1.515946
5.143279 2.645358 1.344846
6.949187 2.644642 1.667053
6.218554 2.634146 1.443501
5.625389 2.631803 1.264461
5.124732 2.631409 1.116349
6.906567 2.628422 1.371488
6.193827 2.622651 1.180444
5.622301 2.628565 1.028134
5.107816 2.617881 0.895207
6.897182 2.625264 1.090166
6.198516 2.622213 0.927808
5.643303 2.634784 0.798056
5.115540 2.618458 0.681393
6.888892 2.622108 0.815333
6.191688 2.617032 0.676519
5.617233 2.620105 0.565612
5.138182 2.626880 0.471906
6.883442 2.616596 0.543233
6.176545 2.609614 0.430316
5.522658 2.573644 0.333179
5.016216 2.561213 0.254577
6.768350 2.570413 0.269148
8.116860 3.424398 0.242998
7.434606 3.460852 0.148154
6.769739 3.455645 0.065932
8.501818 3.225166 0.006189
8.606840 3.628991 -0.083797
8.197449 3.812131 -0.165063
7.512233 3.828871 -0.235225
8.509824 3.224126 -0.327325
12.314937 5.185894 -0.605143
10.186775 4.731623 -0.617546
10.280610 5.235577 -0.744649
9.602941 3.632528 -0.744775
7.043065 2.650607 2.300148
6.333912 2.661812 2.018970
5.717102 2.661128 1.785515
5.203271 2.663390 1.594930
7.037809 2.651294 1.984232
6.276737 2.637784 1.722556
5.691605 2.644065 1.523258
5.186939 2.647722 1.354132
6.993789 2.637080 1.675804
6.286114 2.640047 1.457296
5.676989 2.634745 1.274237
5.173017 2.636178 1.125101
6.996477 2.638094 1.387728
6.267232 2.631088 1.192889
5.649134 2.620020 1.031566
5.156335 2.622804 0.902296
6.949634 2.620847 1.097180
6.244901 2.619277 0.933543
5.683761 2.632465 0.802632
5.155422 2.618943 0.685631
6.934104 2.614990 0.819731
6.255665 2.621481 0.682627
5.663205 2.620423 0.569429
5.157771 2.616966 0.472966
6.923170 2.607417 0.545734
6.238828 2.613402 0.434094
5.607567 2.592303 0.337820
5.081972 2.575162 0.257512
6.940816 2.611573 0.275687
8.149461 3.408737 0.243660
7.492390 3.459823 0.149093
6.817774 3.453839 0.066297
8.499504 3.194494 0.006181
8.617932 3.602568 -0.083797
8.156449 3.762672 -0.164004
7.534648 3.811220 -0.235559
8.500963 3.190979 -0.326606
12.469069 5.205819 -0.611929
10.257469 4.726255 -0.620950
10.370548 5.241373 -0.749995
9.618711 3.604800 -0.745137
7.090591 2.643687 2.313009
6.388987 2.661924 2.033912
5.746204 2.653256 1.792054
5.250123 2.667076 1.606776
7.076709 2.641185 1.992906
6.334913 2.639395 1.736291
5.731463 2.641233 1.531749
5.224580 2.646762 1.361832
7.092341 2.649416 1.697463
6.330295 2.635785 1.465657
5.719759 2.633298 1.282018
5.196850 2.628271 1.128525
7.043222 2.631067 1.395392
6.308010 2.625473 1.199112
5.713609 2.628654 1.041862
5.182880 2.616323 0.905532
7.031778 2.627212 1.108871
6.294983 2.617602 0.939825
5.713442 2.624953 0.805682
5.180281 2.611608 0.687869
6.987717 2.610750 0.825118
6.302269 2.618310 0.686833
5.692939 2.613007 0.571610
5.203163 2.619956 0.476389
7.025508 2.621376 0.553165
6.272623 2.604966 0.435888
5.649984 2.590903 0.339895
5.141613 2.585589 0.260131
6.972205 2.598993 0.276615
8.307620 3.444984 0.248072
7.532967 3.450561 0.149690
6.890877 3.464347 0.066904
8.507390 3.167705 0.006179
8.639106 3.580323 -0.083896
8.137951 3.723902 -0.163402
7.532905 3.781360 -0.235141
8.508840 3.164187 -0.326534
12.647435 5.234780 -0.619891
10.324592 4.718837 -0.624134
10.458832 5.245772 -0.755212
9.602609 3.565206 -0.743039
7.169538 2.648097 2.336101
6.430821 2.656229 2.044626
5.795432 2.654446 1.804858
5.280679 2.662248 1.613620
7.177284 2.653663 2.018927
6.398535 2.642893 1.751498
5.780195 2.642221 1.542600
5.281408 2.655221 1.374515
7.126974 2.637466 1.703807
6.374509 2.631276 1.474018
5.770596 2.635276 1.291594
5.249637 2.634774 1.138227
7.104742 2.629239 1.405976
6.333335 2.613246 1.202397
5.746777 2.622581 1.046438
5.258905 2.634486 0.917398
7.088049 2.623483 1.116470
6.339619 2.613379 0.945288
5.755766 2.623042 0.810512
5.219352 2.611254 0.691990
7.064672 2.614830 0.833254
6.361792 2.620181 0.692440
5.715431 2.602131 0.573064
5.227225 2.612000 0.477856
7.074676 2.615024 0.556402
6.358100 2.617622 0.441267
5.698807 2.592161 0.342352
5.186169 2.588092 0.261982
7.018580 2.591783 0.278138
8.341264 3.428982 0.248761
7.551710 3.431157 0.149852
6.924738 3.454797 0.067129
8.505810 3.137437 0.006171
8.728669 3.586102 -0.084658
8.051921 3.654701 -0.161448
7.673313 3.822413 -0.239157
8.511943 3.135649 -0.326282
12.711495 5.215672 -0.622244
10.439964 4.732902 -0.630228
10.505251 5.228778 -0.757402
9.602269 3.531597 -0.742171
7.243190 2.650076 2.357439
6.475343 2.651393 2.056185
5.861365 2.662920 1.822838
5.319881 2.661574 1.623096
7.239867 2.651583 2.034233
6.459546 2.644924 1.765970
5.857309 2.655776 1.560998
5.311318 2.649876 1.380177
7.190001 2.635739 1.716934
6.465818 2.645779 1.493248
5.826854 2.639393 1.302367
5.285817 2.632662 1.144315
7.184780 2.633825 1.420209
6.416988 2.624752 1.216744
5.800633 2.625686 1.054773
5.297928 2.633733 0.922792
7.163867 2.626584 1.127138
6.390707 2.611529 0.951706
5.791806 2.618037 0.814452
5.301163 2.631881 0.701762
7.105322 2.605119 0.837102
6.390067 2.608925 0.694643
5.768768 2.605077 0.577607
5.278074 2.617203 0.481768
7.144474 2.615938 0.561257
6.401212 2.612433 0.443701
5.745870 2.592322 0.344700
5.215570 2.582808 0.263066
7.078116 2.589120 0.280182
8.355447 3.404884 0.248871
7.630567 3.438782 0.151207
6.972047 3.451726 0.067485
8.506942 3.108238 0.006165
8.883176 3.617767 -0.086049
8.046685 3.622592 -0.161120
7.411692 3.663750 -0.230651
8.503686 3.103012 -0.325599
12.801465 5.206759 -0.625863
10.485398 4.714772 -0.632094
10.605349 5.238064 -0.763456
9.599001 3.497000 -0.741086
7.307930 2.648369 2.375855
6.543899 2.656050 2.075357
5.901964 2.659551 1.832918
5.358265 2.660256 1.632310
7.283417 2.642218 2.044182
6.508951 2.641865 1.777252
5.901766 2.654135 1.570668
5.347356 2.647398 1.387425
7.245748 2.630986 1.728310
6.512871 2.641736 1.502236
5.850119 2.628331 1.305759
5.331714 2.635137 1.152496
7.225172 2.623515 1.426596
6.481602 2.627998 1.227461
5.842862 2.623232 1.060983
5.348517 2.638449 0.930189
7.243489 2.630595 1.138390
6.462042 2.617573 0.961129
5.840540 2.618516 0.820171
5.331483 2.626576 0.704706
7.212311 2.619272 0.848756
6.466291 2.616930 0.702053
5.842171 2.616676 0.584150
5.307542 2.611559 0.483724
7.206843 2.613728 0.565524
6.443426 2.606629 0.446071
5.782961 2.587733 0.346447
5.238712 2.574285 0.263833
7.125487 2.581689 0.281742
8.389026 3.388593 0.249561
7.760659 3.468803 0.153573
7.010426 3.443988 0.067754
8.508916 3.079402 0.006159
9.343026 3.771668 -0.090391
8.069630 3.603188 -0.161357
7.325074 3.593011 -0.227612
8.506586 3.074530 -0.325348
12.906325 5.203320 -0.630206
10.583710 4.719996 -0.637145
10.672446 5.230536 -0.767128
9.601242 3.464488 -0.740434
7.389829 2.652428 2.399824
6.595631 2.653508 2.089172
5.936449 2.653210 1.841091
5.395825 2.658300 1.641259
7.354276 2.642421 2.061785
6.554800 2.637081 1.787554
5.947157 2.652642 1.580575
5.389547 2.647730 1.396257
7.343769 2.641105 1.749750
6.569941 2.641440 1.513523
5.919019 2.637491 1.319325
5.381201 2.639084 1.161437
7.305353 2.627290 1.440829
6.526190 2.622792 1.234375
5.886031 2.620945 1.067357
5.366348 2.626806 0.931884
7.284107 2.620079 1.143505
6.527039 2.620620 0.969596
5.897487 2.622347 0.827035
5.368065 2.624163 0.708474
7.275494 2.616981 0.855243
6.544472 2.625232 0.709664
5.874744 2.609656 0.586604
5.345084 2.609693 0.486414
7.328395 2.632399 0.574426
6.517157 2.613218 0.450618
5.829205 2.586991 0.348741
5.298664 2.583594 0.266452
7.151244 2.566229 0.282448
8.406806 3.365813 0.249781
7.786803 3.451866 0.153880
7.052419 3.437800 0.068058
8.505144 3.048559 0.006150
9.347125 3.740015 -0.090319
8.046821 3.563434 -0.160682
7.336962 3.570959 -0.227640
8.504688 3.044376 -0.324916
12.981597 5.187423 -0.633102
10.685805 4.726277 -0.642415
10.701905 5.204315 -0.768094
9.586467 3.425953 -0.738481
7.450195 2.648322 2.416777
6.648301 2.651029 2.103269
5.983265 2.652140 1.853078
5.435157 2.656987 1.650736
7.461643 2.655179 2.089592
6.639402 2.647480 1.808402
5.979262 2.644999 1.586943
5.443172 2.653376 1.408034
7.405151 2.637552 1.762439
6.597091 2.628874 1.517912
5.984445 2.644669 1.332093
5.404279 2.629865 1.164671
7.399516 2.635545 1.457799
6.579958 2.620982 1.243018
5.953607 2.629178 1.078143
5.399268 2.622417 0.936199
7.362935 2.622950 1.154611
6.588433 2.621827 0.977517
5.933639 2.616649 0.830975
5.400215 2.619383 0.711653
6.578383 2.615434 0.712467
5.930112 2.612498 0.591330
5.395223 2.613706 0.490244
6.588206 2.618274 0.454973
5.865445 2.581564 0.350433
5.384802 2.605177 0.270381
7.224055 2.567368 0.285011
8.703269 3.453563 0.258274
7.841291 3.447275 0.154747
8.498436 3.016764 0.006138
8.484793 3.364813 -0.081886
8.141020 3.575316 -0.162343
7.352383 3.550606 -0.227779
8.498918 3.012927 -0.324341
13.146985 5.206794 -0.640386
10.727686 4.705504 -0.644062
10.725011 5.174927 -0.768609
9.605394 3.399521 -0.739132
7.496172 2.638789 2.429054
6.701017 2.648251 2.117366
6.033653 2.652357 1.866155
5.481475 2.658825 1.662318
7.507144 2.645450 2.100051
6.678147 2.639213 1.816741
6.027395 2.644210 1.597558
5.479346 2.650235 1.415282
7.487745 2.641112 1.780159
6.651512 2.626942 1.528572
5.997018 2.628264 1.333091
5.461830 2.637177 1.175325
7.438166 2.623624 1.463821
6.618200 2.612718 1.248722
6.007734 2.631085 1.086478
5.450902 2.626858 0.943750
7.429721 2.621083 1.163818
6.639759 2.618684 0.983935
5.976173 2.613535 0.835805
7.379523 2.603374 0.865577
6.643770 2.617854 0.718676
5.985553 2.615024 0.596055
7.469512 2.631456 0.584211
6.627777 2.610484 0.457151
5.897131 2.573942 0.351853
5.390968 2.587780 0.270290
7.289398 2.565430 0.287277
8.801268 3.461235 0.260865
7.936149 3.459963 0.156409
7.196889 3.453733 0.069246
8.500105 2.988024 0.006133
8.494146 3.338400 -0.081877
8.164785 3.555912 -0.162598
7.367749 3.530192 -0.227918
8.496806 2.982866 -0.323910
13.246590 5.199285 -0.644457
11.913152 5.181964 -0.714277
10.745338 5.144153 -0.768931
9.601660 3.365088 -0.738047
7.557511 2.634351 2.446300
6.760924 2.647974 2.133719
6.101738 2.659980 1.884680
5.518294 2.655801 1.671005
7.575477 2.643431 2.116888
6.726834 2.634622 1.827779
6.058648 2.635786 1.603690
5.524333 2.651112 1.424794
7.552006 2.637755 1.793505
6.712358 2.627196 1.540695
6.046393 2.627819 1.342268
5.504425 2.636950 1.182744
7.507443 2.622189 1.475864
6.740841 2.637259 1.270329
6.067357 2.635042 1.095793
5.494591 2.627171 0.949915
7.495630 2.618504 1.172878
6.695739 2.617053 0.991036
6.026933 2.613736 0.841778
7.511334 2.623990 0.880090
6.703672 2.617726 0.724283
6.041979 2.617630 0.600872
6.695252 2.613361 0.461249
5.928825 2.566150 0.353273
5.405195 2.574235 0.270607
7.419909 2.585805 0.292107
8.809052 3.433128 0.260783
7.961411 3.441947 0.156698
7.235440 3.444963 0.069515
8.500732 2.958974 0.006127
8.500621 3.310873 -0.081841
8.181162 3.533224 -0.162708
7.401115 3.518301 -0.228616
8.497422 2.953831 -0.323586
13.326719 5.183608 -0.647579
12.107777 5.222506 -0.724982
10.360842 4.921067 -0.740333
9.620419 3.338557 -0.738698
7.602621 2.623944 2.458285
6.831626 2.651520 2.153455
6.147847 2.657665 1.896395
5.572556 2.660891 1.684956
7.651181 2.643544 2.135766
6.809898 2.643086 1.848136
6.113105 2.637202 1.615956
5.560582 2.647550 1.432041
7.646749 2.644552 1.814069
6.776913 2.628515 1.553655
6.115619 2.635629 1.355834
5.550617 2.638172 1.190925
7.606514 2.630638 1.493747
6.786552 2.631163 1.277417
6.109844 2.631243 1.102004
5.545475 2.630628 0.957312
7.578421 2.621366 1.184569
6.729602 2.606517 0.994860
6.088685 2.618353 0.849277
7.555983 2.613605 0.884377
6.743221 2.609356 0.727688
6.075601 2.610088 0.603416
7.560930 2.611623 0.590096
6.742329 2.607928 0.463939
5.968785 2.561732 0.355184
5.423003 2.562334 0.271103
7.530775 2.598559 0.296156
8.821407 3.406806 0.260838
8.042693 3.447840 0.158089
7.288470 3.442823 0.069923
8.493698 2.927340 0.006115
8.498611 3.280097 -0.081725
8.167148 3.497481 -0.162215
7.428148 3.503253 -0.229118
8.497939 2.924821 -0.323263
13.451619 5.184732 -0.652872
12.255024 5.241484 -0.732832
10.347906 4.876071 -0.738336
9.617411 3.304489 -0.737685
7.771717 2.655650 2.510315
6.887190 2.648801 2.168397
6.173659 2.646372 1.901844
5.622542 2.663607 1.697591
7.744337 2.649162 2.159491
6.884028 2.647585 1.866041
6.201579 2.652833 1.637184
5.618878 2.654191 1.444951
7.694522 2.634672 1.823476
6.875314 2.642443 1.574348
6.181344 2.641497 1.368603
5.591539 2.636623 1.197964
7.703848 2.637865 1.511264
6.807464 2.615275 1.279837
6.151458 2.626821 1.108051
5.588386 2.630011 0.963322
7.658492 2.622783 1.195821
6.843925 2.626679 1.010565
6.146871 2.621059 0.856268
7.608161 2.605547 0.889545
6.813439 2.612522 0.734397
6.133971 2.612901 0.608414
7.638735 2.612294 0.595540
6.813664 2.611518 0.468294
5.994992 2.551228 0.356276
5.450739 2.555013 0.272097
7.557625 2.581904 0.296899
8.818748 3.374724 0.260452
8.127766 3.454830 0.159552
7.365098 3.451421 0.070556
8.496960 2.899331 0.006111
8.503030 3.251865 -0.081671
8.210971 3.486476 -0.162872
7.503145 3.510524 -0.231097
8.499305 2.896157 -0.322975
13.495460 5.154132 -0.654229
12.288512 5.211268 -0.733875
10.343832 4.835427 -0.736984
9.612396 3.269828 -0.736528
7.901217 2.672859 2.549484
6.956249 2.650892 2.187569
6.222482 2.644732 1.914375
5.664739 2.662349 1.707857
7.799135 2.641208 2.172502
6.949191 2.648202 1.881493
6.239212 2.646316 1.644968
5.646398 2.646033 1.449933
7.796829 2.643006 1.845791
6.927255 2.638043 1.584381
6.220998 2.635901 1.375585
5.633393 2.635263 1.205193
7.769637 2.633788 1.522578
6.894620 2.624512 1.294702
6.194918 2.622938 1.114424
5.632240 2.629573 0.969486
7.763002 2.631992 1.210873
6.914916 2.629613 1.019851
6.188687 2.616479 0.860970
5.596363 2.609255 0.732141
7.684835 2.605490 0.897570
6.886529 2.616342 0.741407
6.164893 2.603757 0.610686
5.690377 2.649704 0.513310
7.693945 2.604837 0.599219
6.872956 2.610087 0.471817
6.027630 2.543304 0.357750
5.477574 2.547124 0.273045
7.594856 2.568630 0.298051
8.837472 3.350843 0.260700
8.152148 3.435703 0.159823
7.395601 3.438083 0.070747
8.505815 2.873249 0.006111
8.505486 3.222928 -0.081599
8.215178 3.458553 -0.162744
7.563749 3.510634 -0.232631
8.502469 2.868151 -0.322759
8.597617 3.253378 -0.416307
12.342181 5.189411 -0.736126
10.326932 4.788976 -0.734729
9.594026 3.230773 -0.734357
7.935679 2.657412 2.557960
7.030770 2.654616 2.208433
6.266033 2.640576 1.925273
5.705231 2.660041 1.717597
7.907129 2.650768 2.200309
6.981770 2.636116 1.888116
6.279550 2.640724 1.653459
5.704834 2.652102 1.462843
7.850230 2.634284 1.856511
6.970999 2.630242 1.592533
6.276033 2.636538 1.385959
5.683306 2.637391 1.214135
7.836404 2.629645 1.534074
6.945032 2.619336 1.302654
6.258425 2.627214 1.124393
5.661798 2.622247 0.973185
7.798238 2.617292 1.215111
6.954469 2.620262 1.024494
6.226872 2.610134 0.865164
7.781367 2.611629 0.907905
6.942014 2.613079 0.746514
6.207759 2.599447 0.614139
7.766201 2.602769 0.604222
6.905215 2.598126 0.473482
6.155155 2.574895 0.364848
5.620524 2.592655 0.279773
7.741999 2.591954 0.303511
8.856133 3.326878 0.260948
8.206932 3.429179 0.160690
7.500552 3.458928 0.071649
8.511745 2.846188 0.006109
8.504099 3.192601 -0.081491
8.280189 3.456055 -0.163822
7.630779 3.513332 -0.234360
8.508384 2.841103 -0.322652
8.574819 3.214712 -0.414724
12.413341 5.174572 -0.739420
10.355175 4.763526 -0.735695
9.571721 3.190601 -0.731897
8.057264 2.670664 2.594499
7.110771 2.659925 2.230988
6.358446 2.656577 1.951154
5.744012 2.656699 1.726810
7.962028 2.642027 2.213319
7.067914 2.643894 1.909209
6.327985 2.638274 1.664073
5.746554 2.650087 1.471449
7.910133 2.627412 1.868763
7.001020 2.617061 1.597549
6.312134 2.628950 1.392144
5.743094 2.643753 1.225169
7.881758 2.617988 1.541373
7.056371 2.636629 1.322014
6.292870 2.618994 1.129133
5.686875 2.612702 0.976113
7.847539 2.607078 1.221541
6.984750 2.607228 1.027772
6.314538 2.624134 0.876222
5.700721 2.615449 0.743680
7.844994 2.606233 0.914392
7.017121 2.616800 0.753723
6.305841 2.617809 0.623045
5.718307 2.620136 0.514369
7.905723 2.622578 0.614448
6.997312 2.608300 0.479246
6.210064 2.575508 0.367633
5.677505 2.597844 0.282211
7.864694 2.606225 0.308007
8.869108 3.300738 0.261031
8.369828 3.467121 0.163670
7.548411 3.452955 0.072004
8.514741 2.818176 0.006105
8.495110 3.159525 -0.081312
8.337869 3.450132 -0.164753
7.665163 3.500701 -0.235085
8.517061 2.814986 -0.322652
8.608989 3.197433 -0.415900
12.434694 5.138752 -0.739749
10.382451 4.737534 -0.736597
9.567258 3.156532 -0.730812
7.162081 2.654100 2.244521
6.406569 2.653626 1.963413
5.792471 2.657570 1.738919
8.063797 2.648361 2.239340
7.119625 2.638367 1.920982
6.397120 2.644090 1.680113
5.784773 2.646221 1.479149
8.034027 2.641225 1.896109
7.116311 2.635303 1.622005
6.370891 2.630515 1.403316
5.794044 2.645694 1.234300
8.027056 2.638934 1.568197
7.095833 2.626593 1.327891
6.361978 2.624886 1.140083
5.757801 2.623924 0.986900
7.959814 2.617289 1.237762
7.072622 2.615334 1.039516
6.369332 2.624018 0.882704
5.736738 2.610699 0.747330
7.089515 2.619050 0.760633
6.345154 2.611337 0.626135
5.763520 2.619488 0.517711
7.094217 2.619661 0.485330
6.292740 2.587198 0.372056
5.714558 2.593625 0.283656
7.902088 2.591738 0.309158
8.875441 3.272129 0.260921
8.379500 3.441046 0.163652
8.516694 2.789861 0.006100
8.490688 3.128262 -0.081177
8.401142 3.446164 -0.165793
8.534205 2.791639 -0.322975
8.588757 3.159968 -0.414452
12.453173 5.101714 -0.739914
10.399664 4.706893 -0.736790
9.563623 3.122832 -0.729799
7.216123 2.648977 2.258900
6.436931 2.643096 1.970224
5.853281 2.663763 1.754713
8.118781 2.638853 2.252351
7.164999 2.630209 1.931039
6.444768 2.640663 1.690491
5.815925 2.638925 1.485038
8.120963 2.642226 1.914705
7.190465 2.637706 1.637054
6.482315 2.653273 1.426060
5.840588 2.645323 1.242481
8.072513 2.626462 1.575496
7.173213 2.630242 1.340855
6.411092 2.622161 1.147437
5.827947 2.634328 0.997534
8.057174 2.621938 1.251645
7.162469 2.623608 1.051534
6.426938 2.624715 0.889568
5.788165 2.612697 0.752982
7.144236 2.614384 0.765640
6.437044 2.626090 0.634405
5.804240 2.616539 0.520645
7.139709 2.611597 0.487892
6.369998 2.596144 0.376151
5.741618 2.584693 0.284604
7.962280 2.584451 0.311201
8.897645 3.249342 0.261279
8.392795 3.416453 0.163707
8.476699 2.747992 0.006066
8.488973 3.098084 -0.081070
8.475583 3.446360 -0.167053
8.551286 2.768214 -0.323299
8.577762 3.126078 -0.413457
12.455815 5.058225 -0.739145
10.521483 4.723190 -0.744391
9.564617 3.090716 -0.729148
7.318892 2.661251 2.288504
6.509175 2.649452 1.989839
5.905391 2.665638 1.767875
8.192192 2.634953 2.270463
7.287833 2.649957 1.961943
6.511362 2.644648 1.705823
5.888834 2.650250 1.501571
8.241419 2.653484 1.941177
7.222420 2.624317 1.642489
6.514032 2.642951 1.431247
5.853154 2.629403 1.243432
8.175059 2.632118 1.593926
7.227538 2.625034 1.349498
6.500477 2.635470 1.161982
5.871164 2.632200 1.003544
8.134861 2.619646 1.262459
7.228220 2.622569 1.060001
6.470818 2.619501 0.894524
5.827876 2.609129 0.757103
7.218638 2.616527 0.772749
6.455226 2.610436 0.635404
5.858643 2.619467 0.524802
8.157385 2.622972 0.632104
7.196477 2.607357 0.491222
6.380710 2.577711 0.376314
5.777798 2.579691 0.286004
7.976831 2.562150 0.311461
8.935773 3.232230 0.262106
8.543245 3.447181 0.166434
8.526035 2.735107 0.006095
8.487153 3.067946 -0.080962
8.546393 3.444636 -0.168239
7.956365 3.545559 -0.243005
8.826220 2.827328 -0.333364
8.578856 3.096694 -0.413050
12.475906 5.021852 -0.739420
10.720988 4.773285 -0.757466
9.566455 3.058927 -0.728569
7.340563 2.643661 2.292733
6.560103 2.646750 2.002916
5.944360 2.661305 1.777088
8.313567 2.645875 2.301842
7.318731 2.635798 1.968075
6.562715 2.642079 1.717144
5.939629 2.651227 1.512442
8.315531 2.649218 1.956709
7.348215 2.644533 1.669244
6.560294 2.638310 1.439626
5.922173 2.638602 1.256369
8.241178 2.625530 1.605239
7.290238 2.622519 1.359697
6.539655 2.628021 1.167539
5.925256 2.634648 1.011403
8.244658 2.627114 1.278241
7.301491 2.623832 1.069560
6.517487 2.615150 0.899863
5.891217 2.615819 0.764285
8.228678 2.622022 0.955290
7.284692 2.615212 0.778958
6.506650 2.608033 0.639676
5.887608 2.610773 0.526676
8.158741 2.595816 0.631589
7.243894 2.599423 0.493912
6.430301 2.574826 0.378772
5.821309 2.577727 0.287765
8.015130 2.547352 0.312650
8.969173 3.213228 0.262795
8.603911 3.441003 0.167410
7.790464 3.448711 0.073904
8.621121 2.736468 0.006157
8.490877 3.039871 -0.080908
9.342420 3.732198 -0.183683
8.022064 3.545377 -0.244678
9.019666 2.858814 -0.340337
8.587376 3.070024 -0.413005
12.457867 4.970232 -0.737444
10.757492 4.750045 -0.759012
9.576745 3.029864 -0.728641
7.421836 2.647236 2.315570
6.601247 2.639830 2.012995
5.984238 2.657150 1.786564
8.374215 2.636910 2.316383
7.406224 2.641667 1.989414
6.601478 2.634178 1.725164
5.978017 2.646398 1.520143
8.370152 2.638361 1.967648
7.399588 2.637408 1.679068
6.609318 2.634498 1.448604
5.960771 2.633912 1.262837
8.316711 2.621516 1.618378
7.377115 2.628237 1.374390
6.596263 2.627294 1.176200
5.938735 2.618849 1.012328
8.300797 2.616977 1.285694
7.328172 2.608062 1.072291
6.613961 2.630331 0.912064
5.931024 2.611740 0.768406
8.307780 2.619179 0.963536
7.348930 2.612849 0.784966
6.579406 2.613796 0.646037
5.952155 2.617573 0.531730
8.257037 2.599221 0.638578
7.369376 2.618959 0.501918
6.504993 2.581605 0.382703
5.907852 2.594399 0.291648
8.272670 2.601286 0.322383
8.975221 3.184359 0.262685
8.705517 3.450697 0.169180
7.867847 3.454138 0.074537
8.677179 2.724987 0.006191
8.486969 3.009129 -0.080783
8.511591 3.370047 -0.167144
8.074102 3.538806 -0.245933
9.114215 2.858040 -0.343572
8.594870 3.042997 -0.412914
12.402488 4.904085 -0.733271
10.772014 4.717019 -0.759012
9.576477 2.997490 -0.727918
7.506818 2.651615 2.339535
6.714864 2.661399 2.045142
6.029445 2.655108 1.797620
8.444117 2.630474 2.333475
7.481023 2.642504 2.007319
6.670979 2.638214 1.741203
6.046754 2.654670 1.535543
8.448072 2.634456 1.984056
7.440842 2.626412 1.686592
6.659292 2.630770 1.457781
6.001195 2.629797 1.269686
8.434533 2.630234 1.639727
7.440873 2.625254 1.384761
6.645587 2.623345 1.183555
6.003774 2.625559 1.022037
7.412752 2.612569 1.083489
6.644146 2.618756 0.915114
6.003622 2.621748 0.776766
7.401021 2.605821 0.789672
6.648552 2.617678 0.652035
5.992133 2.613245 0.534582
7.431975 2.615553 0.505632
6.542618 2.573332 0.384450
5.944176 2.588627 0.293048
8.381758 2.607357 0.326321
8.987777 3.157803 0.262768
8.736536 3.432015 0.169577
8.821104 2.740482 0.006287
8.487669 2.980096 -0.080702
8.499552 3.335153 -0.166706
9.099079 2.822662 -0.342674
8.587197 3.010664 -0.412100
12.454661 4.880584 -0.735467
10.761720 4.673217 -0.757273
9.594203 2.970751 -0.728569
7.576501 2.650112 2.358707
6.778522 2.662596 2.062033
6.061433 2.647022 1.804727
8.592601 2.647837 2.372252
7.554066 2.642265 2.024733
6.704375 2.627665 1.747808
6.085234 2.649326 1.543244
8.451452 2.607087 1.982962
7.510715 2.625190 1.700597
6.675544 2.613543 1.459577
6.050653 2.629373 1.278437
8.490479 2.619126 1.649034
7.554893 2.639447 1.404467
6.694947 2.619118 1.190909
6.056219 2.626390 1.029588
8.430133 2.600994 1.303230
7.546999 2.633881 1.101925
6.678019 2.608465 0.918673
8.435766 2.602732 0.976509
7.478504 2.607342 0.797082
6.681600 2.607041 0.654488
8.448199 2.602532 0.652115
7.476716 2.605547 0.508130
6.526293 2.543819 0.383031
5.959427 2.573547 0.293409
8.425056 2.592505 0.327696
8.966267 3.119374 0.261858
8.770318 3.414263 0.170029
7.978863 3.444638 0.075387
8.912633 2.738963 0.006347
8.487328 2.950758 -0.080612
8.494835 3.303263 -0.166414
8.144317 3.510167 -0.247411
9.101964 2.792974 -0.342458
14.266294 4.952655 -0.683907
12.413731 4.820663 -0.732173
10.757676 4.632285 -0.755985
9.605179 2.941886 -0.728714
7.674348 2.657941 2.386619
6.831491 2.659238 2.075655
6.127069 2.653332 1.821838
8.612707 2.625127 2.375568
7.639087 2.645728 2.045336
6.791215 2.637693 1.768329
6.130891 2.646859 1.552756
8.546208 2.607630 2.003308
7.613919 2.635077 1.722126
6.776713 2.629202 1.479926
6.126310 2.639935 1.292705
8.577469 2.617168 1.664362
7.593673 2.626883 1.410171
6.786658 2.631017 1.205781
6.101463 2.623801 1.035906
8.540261 2.606304 1.319013
7.592496 2.623657 1.107388
6.754441 2.614460 0.928079
6.118143 2.627178 0.789483
8.438007 2.575098 0.975849
7.564531 2.611333 0.805394
6.726721 2.600896 0.658123
8.464730 2.579217 0.652777
7.546937 2.604081 0.512357
6.575050 2.539614 0.385433
5.970049 2.556431 0.293545
8.478859 2.580611 0.329479
8.942715 3.080457 0.260893
8.903885 3.434842 0.172413
8.029842 3.437459 0.075769
9.011887 2.739234 0.006411
8.487831 2.921776 -0.080532
8.494666 3.273231 -0.166213
8.165158 3.489485 -0.247718
9.070326 2.752847 -0.340948
14.276699 4.907240 -0.683681
12.412620 4.776460 -0.731240
10.765413 4.596516 -0.755534
9.614160 2.912404 -0.728714
7.781391 2.668305 2.417350
6.904252 2.663199 2.095270
6.184822 2.655839 1.836579
7.707692 2.643034 2.061524
6.849156 2.636043 1.781301
6.174799 2.643370 1.561815
7.700602 2.638650 1.739893
6.864320 2.638991 1.497283
6.163270 2.633471 1.298793
8.513921 2.569253 1.650493
7.665991 2.625594 1.422098
6.830615 2.623981 1.212155
6.169470 2.630647 1.046077
8.551058 2.580948 1.319451
7.689552 2.630815 1.120361
6.823553 2.617169 0.936467
8.573374 2.587684 0.990582
7.652534 2.615465 0.813905
6.771867 2.594498 0.661758
8.544218 2.574817 0.658295
7.631384 2.607047 0.517545
6.703108 2.565472 0.392477
6.072576 2.578316 0.298195
8.521185 2.564955 0.330816
8.924687 3.043649 0.260093
8.968549 3.428214 0.173461
8.134239 3.452659 0.076654
9.040360 2.717619 0.006426
8.489182 2.893142 -0.080460
8.499064 3.245015 -0.166103
8.175826 3.464419 -0.247718
9.059585 2.719261 -0.340229
14.266152 4.854728 -0.682460
12.417885 4.734799 -0.730691
10.773950 4.561132 -0.755147
9.617317 2.881177 -0.728280
7.799534 2.647813 2.420451
6.937556 2.651623 2.102898
6.231109 2.653103 1.847898
7.753402 2.632152 2.071580
6.918047 2.638218 1.797105
6.228606 2.643822 1.573366
7.761448 2.632919 1.751807
6.945641 2.645825 1.513244
6.199343 2.626422 1.304691
7.764490 2.632743 1.438866
6.881968 2.619507 1.219836
6.196623 2.619787 1.049314
7.760452 2.628504 1.129511
6.851949 2.603974 0.939263
9.607978 2.867823 1.109100
7.734036 2.616849 0.821716
6.861726 2.604812 0.669756
9.542238 2.843667 0.734512
7.687559 2.599927 0.520811
6.741757 2.556578 0.394278
6.147670 2.587968 0.301492
9.491581 2.825325 0.368152
8.918829 3.011138 0.259652
9.120212 3.454156 0.176188
8.158618 3.433505 0.076784
9.167514 2.725204 0.006510
8.490439 2.864526 -0.080388
8.501498 3.216095 -0.165957
8.184573 3.438545 -0.247662
9.022857 2.678089 -0.338540
14.283819 4.811893 -0.682595
12.298782 4.646219 -0.722841
10.765809 4.518788 -0.753602
9.585946 2.839760 -0.725241
7.836723 2.633652 2.429473
7.033840 2.663721 2.129596
6.261439 2.643354 1.854478
7.899283 2.654676 2.108371
6.962471 2.630721 1.806540
6.304917 2.653415 1.590578
7.814914 2.624349 1.762049
6.989480 2.637999 1.521024
6.275256 2.635906 1.318959
7.850966 2.635236 1.453386
6.964742 2.626579 1.233074
6.244726 2.617570 1.056094
7.797596 2.614445 1.133745
6.949947 2.616844 0.951592
7.773163 2.603537 0.825020
6.910698 2.599174 0.673754
6.339571 2.649784 0.561886
9.685801 2.854125 0.744885
7.793916 2.609278 0.527472
6.776676 2.546067 0.395862
6.164801 2.572943 0.301943
9.829020 2.892972 0.380894
8.919492 2.980910 0.259404
9.216889 3.458475 0.177850
8.253093 3.443499 0.077573
9.242991 2.716805 0.006558
8.495393 2.837197 -0.080352
8.500090 3.185787 -0.165738
8.203389 3.416878 -0.247913
9.035826 2.651802 -0.338720
14.325997 4.777213 -0.683907
12.304563 4.605315 -0.722347
10.774094 4.483437 -0.753215
9.568770 2.802767 -0.723287
7.934894 2.639578 2.457386
7.080716 2.656663 2.141311
6.318465 2.644618 1.868956
7.957984 2.647260 2.121862
7.032396 2.632515 1.822579
6.345388 2.647561 1.598732
7.883248 2.620411 1.775635
7.048021 2.635419 1.531997
6.336785 2.638909 1.330183
7.925378 2.633187 1.465658
7.033762 2.627988 1.243860
6.327544 2.629490 1.068731
7.902422 2.622650 1.147810
7.011845 2.615616 0.958964
6.311352 2.618887 0.810206
7.889723 2.615684 0.836536
7.005426 2.610297 0.682206
6.345830 2.629559 0.561723
9.745258 2.839181 0.748784
7.851144 2.601678 0.530802
6.979099 2.597714 0.407219
6.241897 2.582663 0.305330
9.905975 2.882628 0.383532
8.925749 2.952590 0.259321
9.241513 3.435408 0.178121
8.345858 3.452179 0.078345
9.449099 2.745921 0.006698
8.502158 2.810493 -0.080334
8.492952 3.153429 -0.165410
8.263726 3.412296 -0.249419
9.035281 2.621561 -0.338396
14.276078 4.711948 -0.680831
12.312080 4.565113 -0.721962
10.721378 4.422960 -0.748578
9.565828 2.770069 -0.722419
7.975761 2.626024 2.467535
7.150161 2.657723 2.159836
6.417437 2.662935 1.895806
8.008427 2.636779 2.133144
7.113332 2.637959 1.841449
6.375983 2.637389 1.604394
51.290885 14.793837 11.968437
7.981356 2.625858 1.795910
7.113962 2.635227 1.544566
6.381149 2.634441 1.337793
7.991430 2.627936 1.476376
7.110257 2.631738 1.255954
6.359335 2.619851 1.072738
7.999840 2.627763 1.160784
7.064495 2.610595 0.965064
6.371704 2.621045 0.816917
44.728989 12.903726 5.149376
7.966723 2.614112 0.843846
7.077864 2.612587 0.688476
6.375993 2.619167 0.563679
9.926423 2.858952 0.762027
7.961500 2.611167 0.537719
7.036689 2.594598 0.410113
6.310791 2.588522 0.308310
10.105884 2.907201 0.390924
8.936665 2.925814 0.259376
9.354278 3.444699 0.180090
8.363811 3.429594 0.078415
9.469012 2.720232 0.006706
8.502187 2.781597 -0.080253
8.493204 3.123907 -0.165227
8.361116 3.422523 -0.252040
9.037517 2.592176 -0.338180
14.302812 4.672160 -0.681419
12.317592 4.524221 -0.721468
10.717347 4.382870 -0.747354
9.571405 2.739885 -0.722202
8.139771 2.652372 2.515747
7.220582 2.658714 2.178634
6.448773 2.652777 1.902650
8.091141 2.636526 2.153011
7.167000 2.632878 1.853242
6.451634 2.645531 1.621380
51.032934 14.549994 11.897774
8.111186 2.641022 1.823292
7.177209 2.633643 1.556536
6.431905 2.632328 1.346734
8.063143 2.624134 1.488130
7.144233 2.619421 1.260530
6.400272 2.613776 1.078286
8.053086 2.617908 1.167339
7.139535 2.613458 0.974216
6.419255 2.617608 0.821981
44.782704 12.770527 5.151025
8.052304 2.614857 0.852057
7.118582 2.602830 0.691657
6.404306 2.607863 0.565472
10.060799 2.864257 0.771664
8.030222 2.606447 0.541818
7.117773 2.599718 0.414372
6.383482 2.595487 0.311471
10.132057 2.881103 0.391593
8.952256 2.900540 0.259569
9.460611 3.450932 0.181932
8.440992 3.431029 0.079039
9.629304 2.734328 0.006814
8.498314 2.751495 -0.080137
8.493353 3.094413 -0.165045
8.420669 3.416775 -0.253518
9.069464 2.571251 -0.339079
14.276206 4.615045 -0.679474
12.280745 4.467975 -0.718504
10.718720 4.345095 -0.746516
9.556732 2.703990 -0.720466
8.252880 2.661249 2.548170
7.266670 2.650396 2.190076
6.513161 2.655929 1.919234
8.240360 2.657212 2.190538
7.294674 2.654409 1.884142
6.515663 2.648465 1.635422
51.076390 14.393093 11.897554
8.179751 2.635619 1.836879
7.240512 2.631695 1.568506
6.487256 2.631774 1.356627
8.137720 2.620822 1.500403
7.232911 2.626789 1.274748
6.469624 2.618968 1.088611
40.419492 11.392312 6.203423
8.188389 2.634143 1.185775
7.223051 2.618929 0.984511
6.452114 2.607949 0.825160
40.407617 11.388966 4.643751
8.173014 2.626364 0.863973
7.190205 2.604038 0.697836
6.476973 2.614315 0.571178
10.174181 2.862821 0.779683
8.120843 2.608348 0.547389
7.181113 2.597910 0.417593
6.430330 2.591574 0.313367
10.175482 2.859738 0.392930
9.060109 2.904801 0.262437
9.560486 3.454167 0.183648
8.498781 3.424174 0.079481
9.658830 2.710718 0.006829
8.508620 2.726020 -0.080155
8.487759 3.062911 -0.164753
8.512723 3.423749 -0.255972
9.110990 2.552852 -0.340337
14.261753 4.562093 -0.678116
12.280304 4.425200 -0.717680
10.717184 4.306237 -0.745486
9.528483 2.664451 -0.717716
8.244553 2.630667 2.543095
7.345352 2.653589 2.211326
6.571366 2.656180 1.933975
8.303888 2.649600 2.205254
7.324724 2.639924 1.889802
6.568930 2.646663 1.646746
51.124067 14.237373 11.898430
8.231589 2.624473 1.846703
7.348125 2.645316 1.590053
6.557238 2.636765 1.369564
8.263967 2.633525 1.522183
7.266000 2.613602 1.279161
6.535398 2.622287 1.098319
8.255902 2.627939 1.194378
7.270260 2.610836 0.989849
6.536596 2.618795 0.834933
40.467266 11.271878 4.646609
8.212323 2.611226 0.867278
7.228157 2.592726 0.700744
6.521977 2.609240 0.574438
10.335689 2.874076 0.791381
8.157339 2.592489 0.549311
7.278349 2.607863 0.422780
6.525455 2.606669 0.317612
10.109104 2.807648 0.390033
9.149016 2.902382 0.264753
9.639759 3.449410 0.184967
8.574253 3.424044 0.080089
9.990879 2.770868 0.007057
8.583668 2.721055 -0.080783
8.487701 3.033491 -0.164570
8.567758 3.415383 -0.257311
9.307550 2.577156 -0.347383
14.253776 4.511384 -0.677076
12.279717 4.382469 -0.716857
10.705314 4.263368 -0.743747
9.552955 2.639721 -0.718946
7.399661 2.647573 2.225219
6.608142 2.647488 1.942398
8.384087 2.646876 2.224386
7.398685 2.640962 1.906785
6.633102 2.648893 1.660787
51.158100 14.077871 11.896242
8.358976 2.636863 1.873457
7.385741 2.633290 1.596437
6.609071 2.634082 1.378695
8.351853 2.633334 1.536876
7.405952 2.638310 1.302368
6.593909 2.622306 1.106795
8.344240 2.627892 1.205986
7.394119 2.629733 1.005609
6.586131 2.615220 0.840231
40.565861 11.165345 4.653975
8.309512 2.614086 0.876690
7.367454 2.617209 0.713467
6.567012 2.603914 0.577698
45.315782 12.451444 3.466788
8.289966 2.606665 0.557701
7.380417 2.618912 0.428241
6.555713 2.595462 0.318695
10.117670 2.776620 0.390033
9.219871 2.893756 0.266545
9.750192 3.455220 0.186882
8.544736 3.381898 0.079716
10.025373 2.747340 0.007076
8.660674 2.716254 -0.081429
8.487543 3.004101 -0.164387
8.511258 3.362636 -0.255303
9.504343 2.600278 -0.354428
14.242764 4.459871 -0.675900
12.266745 4.335459 -0.715320
10.716487 4.229772 -0.743618
9.566782 2.611977 -0.719380
7.516579 2.663422 2.257911
6.652995 2.641800 1.953191
8.435660 2.634726 2.235914
7.464475 2.638655 1.921645
6.671990 2.640718 1.668488
8.430505 2.631016 1.887671
7.432593 2.624321 1.604816
6.661862 2.631467 1.388017
44.375782 12.065158 8.534757
8.421950 2.627056 1.548284
7.452155 2.629034 1.309068
6.637773 2.616194 1.112806
8.407119 2.619371 1.213907
7.432090 2.617580 1.009676
6.669897 2.624821 0.849886
40.587457 11.037447 4.652546
8.399195 2.614008 0.885302
7.408329 2.606160 0.716647
6.661238 2.617655 0.585278
8.407508 2.615307 0.565066
7.442113 2.615126 0.431353
6.578524 2.581175 0.319418
10.173401 2.758380 0.391853
9.394816 2.917033 0.271343
9.789993 3.435554 0.187442
8.522489 3.342887 0.079412
10.045337 2.719706 0.007084
8.791212 2.727599 -0.082577
8.480678 2.972426 -0.164077
8.493611 3.325575 -0.254467
9.589454 2.591968 -0.357304
14.248745 4.413790 -0.675538
12.235693 4.282302 -0.712739
10.676440 4.176153 -0.739947
9.573788 2.582355 -0.719308
7.561032 2.653091 2.268809
6.689795 2.632681 1.961614
8.495574 2.624859 2.249649
7.548664 2.642391 1.941222
6.722677 2.636953 1.679132
51.223726 13.758390 11.891648
8.474044 2.616101 1.895613
7.483159 2.616382 1.613994
6.749438 2.642150 1.404568
8.434676 2.602658 1.549149
7.524450 2.628609 1.320345
6.700068 2.617027 1.121898
8.433102 2.599110 1.216502
7.473802 2.606525 1.014252
6.702898 2.614088 0.853065
9.793879 2.631128 1.121743
8.422391 2.592911 0.886904
7.507513 2.615196 0.725462
6.721247 2.617460 0.589842
8.464137 2.604469 0.568332
7.515172 2.614923 0.435120
6.631104 2.578358 0.321585
10.192434 2.730000 0.392262
9.451499 2.902871 0.272722
9.817487 3.411410 0.187767
8.510337 3.308030 0.079204
10.053634 2.688874 0.007084
8.913297 2.735528 -0.083644
8.484090 2.944426 -0.163968
8.492591 3.295162 -0.254132
9.674604 2.583159 -0.360179
14.172436 4.342544 -0.671285
12.239339 4.241473 -0.712190
10.674315 4.137608 -0.738916
9.562390 2.547835 -0.717861
7.641846 2.655145 2.290603
6.793114 2.649301 1.989517
8.584247 2.623434 2.270988
7.613663 2.638951 1.955846
6.803363 2.644547 1.697251
51.251549 13.597420 11.888367
8.525054 2.603229 1.905229
7.581896 2.624828 1.633545
6.790463 2.634213 1.411417
8.502911 2.595170 1.560212
7.562314 2.615832 1.325575
6.777173 2.623208 1.133456
9.882034 2.622331 1.510303
8.509263 2.594023 1.226334
7.566144 2.612722 1.025691
6.769242 2.616064 0.860483
8.432209 2.567639 0.887104
7.562573 2.608386 0.730006
6.766439 2.611181 0.593102
11.326507 3.000353 0.864361
8.479725 2.580814 0.568844
7.580746 2.611694 0.438451
6.706100 2.583862 0.324836
10.205592 2.699995 0.392447
9.567484 2.906402 0.275810
9.877070 3.398188 0.188706
8.500849 3.274357 0.079022
10.412796 2.750730 0.007331
8.933130 2.711655 -0.083752
8.483628 2.915135 -0.163785
8.500794 3.268374 -0.254076
10.340544 2.727010 -0.384659
14.159879 4.291220 -0.670064
12.226794 4.195154 -0.710708
10.685095 4.104125 -0.738787
9.575949 2.520009 -0.718295
7.706366 2.651094 2.307494
6.878598 2.658356 2.012155
7.686984 2.637976 1.972593
6.859617 2.642217 1.709254
51.140110 13.400051 11.852925
7.690952 2.636187 1.655291
6.845247 2.631333 1.421120
44.363206 11.624324 8.511400
8.570238 2.587003 1.571102
7.714038 2.641843 1.350743
6.858992 2.630710 1.145784
9.979985 2.615576 1.524040
8.536150 2.573624 1.229065
7.644516 2.613563 1.035223
6.834733 2.617302 0.867783
8.863049 2.669147 0.931565
7.637452 2.608021 0.736458
6.833067 2.612835 0.598237
44.864085 11.737160 3.420955
8.610875 2.591892 0.577106
7.635975 2.604542 0.441181
6.752260 2.577885 0.326687
10.742696 2.806855 0.412768
9.748679 2.928807 0.280773
9.914896 3.377219 0.189230
8.480025 3.236495 0.078736
10.536333 2.748811 0.007412
9.054420 2.718163 -0.084811
8.489692 2.888127 -0.163730
8.480890 3.230891 -0.253184
10.499729 2.734565 -0.390266
14.122260 4.232558 -0.667666
12.198007 4.143493 -0.708293
10.696703 4.070969 -0.738723
9.592323 2.492876 -0.718946
7.778219 2.649153 2.326564
6.949787 2.661391 2.030581
7.783374 2.644391 1.995237
6.930480 2.645125 1.724882
50.712033 15.145987 11.312438
7.746328 2.628638 1.665466
6.884480 2.622201 1.427588
44.374315 13.246375 8.127239
7.752005 2.628302 1.355973
6.901204 2.622641 1.151486
9.542627 2.469690 1.456087
7.768061 2.629211 1.050856
6.926292 2.628026 0.878381
9.527086 2.465668 1.088540
9.596874 2.858058 1.007768
7.736928 2.615514 0.745273
6.875536 2.604925 0.601252
45.398127 11.728181 3.458916
9.601085 2.857852 0.642880
7.718667 2.606338 0.445495
6.853573 2.592501 0.331203
11.179914 2.884479 0.429225
9.863982 2.930484 0.283833
9.934685 3.349979 0.189410
8.482432 3.207634 0.078666
10.638650 2.740672 0.007478
9.122150 2.708015 -0.085367
8.491880 2.859834 -0.163602
8.486085 3.203092 -0.253044
10.585497 2.722251 -0.393142
14.119854 4.184670 -0.666942
12.164288 4.090456 -0.705603
10.717546 4.041302 -0.739302
9.576739 2.457486 -0.717210
7.860161 2.650177 2.348631
7.010234 2.659907 2.045849
7.872505 2.647761 2.015994
6.991404 2.643832 1.738018
51.068210 13.046880 11.817484
7.837956 2.632943 1.683421
6.993529 2.639196 1.448515
44.310809 11.320502 8.487861
7.844207 2.632758 1.370681
6.945280 2.615035 1.157497
9.540574 2.437953 1.454626
7.838164 2.626164 1.059245
6.966856 2.618994 0.882502
9.525938 2.434213 1.087551
9.658093 2.844060 1.013276
7.811967 2.614203 0.751726
6.962809 2.613590 0.608180
45.379778 11.575043 3.454796
9.718945 2.860504 0.650181
7.786288 2.602588 0.448935
6.906396 2.588290 0.333370
11.164501 2.843999 0.428297
9.914167 2.912323 0.285019
10.019839 3.344493 0.190837
8.486615 3.179490 0.078614
10.807885 2.748939 0.007591
9.209093 2.703110 -0.086102
8.491129 2.830606 -0.163420
8.493064 3.175991 -0.252961
10.783649 2.737966 -0.400187
14.081817 4.126442 -0.664544
12.139832 4.040819 -0.703462
10.701850 3.997925 -0.737370
9.572632 2.425154 -0.716342
50.565457 14.777334 15.480739
7.973213 2.661080 2.379961
7.062610 2.655021 2.058748
7.896266 2.628814 2.020003
7.046911 2.640139 1.749795
7.901787 2.627435 1.695391
7.026421 2.627010 1.453651
44.336568 12.939357 8.105633
7.931828 2.635119 1.384573
7.036587 2.624794 1.171366
9.548010 2.408672 1.454626
7.928092 2.629269 1.070303
7.032556 2.619096 0.889802
9.540108 2.406678 1.088321
7.877618 2.609325 0.757269
7.012832 2.607849 0.611848
45.460529 11.447210 3.458254
9.827327 2.859672 0.656842
7.851114 2.597505 0.452211
6.985480 2.593515 0.336802
11.151853 2.804372 0.427479
10.070889 2.924827 0.289265
10.239862 3.383054 0.194829
8.498204 3.154135 0.078631
10.751285 2.699451 0.007545
9.197176 2.668991 -0.085914
8.496925 2.803602 -0.163365
8.499956 3.148878 -0.252877
10.760009 2.696851 -0.399001
10.100883 2.926275 -0.476251
12.170190 4.009492 -0.704505
10.710321 3.963688 -0.737113
9.548097 2.387789 -0.713954
8.038898 2.655620 2.397124
7.124062 2.653206 2.074278
8.015050 2.641072 2.048308
7.122551 2.643588 1.766554
51.146356 12.733051 11.817264
51.123636 14.757801 11.373472
7.964727 2.621254 1.707162
7.101653 2.630333 1.467539
44.305081 12.782796 8.092668
8.006415 2.632651 1.396176
7.086313 2.618605 1.178301
45.004430 11.206500 6.851093
8.012457 2.629990 1.080598
7.078756 2.611601 0.894629
44.703926 11.131671 5.095834
44.662137 12.854575 4.677351
7.952774 2.607171 0.763721
7.108712 2.618706 0.619509
45.381233 11.279300 3.449573
9.875377 2.840820 0.659468
7.952991 2.604168 0.457616
7.031845 2.586209 0.338653
10.935392 2.714295 0.418861
10.083658 2.895020 0.289376
10.107645 3.305012 0.192120
8.507841 3.128048 0.078631
11.257453 2.789854 0.007895
9.460036 2.713833 -0.088291
8.494080 2.773796 -0.163146
8.501131 3.119687 -0.252626
10.772113 2.664787 -0.399145
10.099249 2.892247 -0.475754
12.142563 3.959135 -0.702199
10.641854 3.901271 -0.731573
9.546663 2.356334 -0.713303
8.073529 2.639616 2.405024
7.188285 2.652041 2.090599
8.128440 2.650818 2.075197
7.160796 2.632815 1.774028
51.185181 12.576076 11.817264
51.168670 14.600886 11.373472
8.077084 2.630795 1.729507
7.176970 2.633218 1.481427
44.308091 10.886391 8.467789
8.091382 2.633109 1.409578
7.175036 2.626400 1.191708
8.050676 2.615202 1.084665
7.131505 2.606232 0.900281
44.713734 10.988540 5.093085
44.694665 12.715587 4.676650
8.049777 2.611648 0.772264
7.187870 2.622850 0.625703
45.411747 11.139069 3.449279
10.070265 2.863461 0.671892
8.036933 2.604381 0.461984
7.101695 2.587192 0.341633
44.867580 10.990647 1.717273
10.115571 2.870620 0.290037
10.074930 3.260134 0.191307
8.510820 3.099536 0.078571
11.225162 2.745326 0.007866
9.588571 2.718896 -0.089413
8.484474 2.741882 -0.162799
8.497509 3.088810 -0.252236
16.644127 4.063249 -0.616259
10.092695 2.856896 -0.475030
12.128996 3.913585 -0.700717
10.646269 3.865879 -0.731058
9.550939 2.326326 -0.713086
8.121869 2.627867 2.417011
7.249848 2.649513 2.106129
8.222542 2.653625 2.097134
7.289647 2.654831 1.803924
51.193177 12.411626 11.810265
51.247107 14.453391 11.380997
8.177450 2.635763 1.749258
7.248681 2.634325 1.494554
8.156704 2.626720 1.419547
7.222073 2.618520 1.198181
40.461625 11.390945 5.794633
8.138927 2.616292 1.095468
7.240313 2.620845 0.912998
44.723090 10.845452 5.090337
40.478789 11.382053 4.231846
8.106110 2.602465 0.776898
7.222129 2.610272 0.627986
45.441832 10.998756 3.448984
10.205819 2.868192 0.680346
8.113344 2.601664 0.465916
7.186653 2.593196 0.345336
44.927313 10.859283 1.718276
10.133956 2.842271 0.290313
10.027752 3.210915 0.190223
8.503358 3.067303 0.078415
44.815531 10.814880 0.031381
9.660416 2.707275 -0.090005
8.500464 2.718276 -0.162945
8.503183 3.061371 -0.252124
16.397106 3.949681 -0.606661
10.099489 2.825381 -0.474939
12.081972 3.857527 -0.697313
10.648688 3.829821 -0.730414
9.587125 2.304005 -0.715256
8.270095 2.647825 2.458693
7.330513 2.653527 2.127188
8.268599 2.640506 2.106804
7.342653 2.648649 1.815021
51.203494 12.247925 11.803920
51.140487 14.254089 11.347554
8.205102 2.616915 1.753447
7.315847 2.633353 1.506729
8.256843 2.631036 1.435563
7.281218 2.614717 1.206657
8.203629 2.609349 1.103094
7.293189 2.614706 0.918649
44.750353 10.706804 5.089677
44.743085 12.433115 4.673646
8.191884 2.602307 0.784350
7.256377 2.597507 0.630268
45.436559 10.850026 3.446041
10.326110 2.867845 0.687775
8.247871 2.616923 0.473178
7.265129 2.596349 0.348723
44.861268 10.697753 1.714487
10.146481 2.812235 0.290423
10.051853 3.184665 0.190494
8.499546 3.036491 0.078293
44.865038 10.681274 0.031392
9.799738 2.713921 -0.091225
8.593604 2.719027 -0.164570
8.495588 3.029226 -0.251622
16.379978 3.892425 -0.605583
10.110997 2.795181 -0.475075
12.098510 3.821945 -0.697588
10.658508 3.796464 -0.730285
9.582502 2.271820 -0.714388
8.335049 2.640456 2.475584
7.397648 2.652188 2.144298
8.369323 2.644404 2.130391
7.393855 2.641511 1.825666
51.258875 12.095035 11.808077
51.226404 14.108810 11.356959
8.375690 2.643040 1.788161
7.401569 2.638587 1.522710
8.346735 2.631500 1.449781
7.383230 2.625806 1.222221
8.371494 2.634488 1.124574
