2.343967 2.833624 -0.202189
2.150473 2.800175 -0.227884
2.348885 2.836242 -0.337152
2.167962 2.820909 -0.360818
2.525940 2.625917 1.113682
2.338037 2.622565 1.032463
2.160319 2.615905 0.960593
1.997760 2.612466 0.897362
2.521529 2.623073 0.959972
2.317945 2.600028 0.881268
2.146714 2.595461 0.817531
1.993858 2.601335 0.762110
2.501268 2.603541 0.809462
2.301659 2.580581 0.739099
2.128730 2.571799 0.679713
1.975583 2.573862 0.628755
2.489673 2.591473 0.666949
2.300221 2.578245 0.606384
2.136321 2.579594 0.554842
1.981206 2.577181 0.507011
2.461692 2.562616 0.524916
2.297204 2.573144 0.475512
2.134671 2.574856 0.428579
1.995595 2.593088 0.387971
2.466435 2.567553 0.393814
2.289525 2.562921 0.345870
2.140352 2.579783 0.305888
1.986521 2.578689 0.266191
2.463436 2.562193 0.262200
2.378514 2.661789 0.229088
2.152682 2.592803 0.184281
2.622669 3.400783 0.194116
3.295772 3.425742 0.176720
3.071008 3.433137 0.127055
2.829503 3.405099 0.079984
2.639652 3.422063 0.037490
3.293756 3.421135 0.003233
3.076106 3.437387 -0.041383
2.840390 3.415531 -0.081108
2.665865 3.451685 -0.121670
4.206296 4.365305 -0.218049
3.714493 4.146963 -0.252128
2.339235 2.810304 -0.201036
2.184073 2.825937 -0.230525
2.360126 2.832083 -0.337516
2.186345 2.826836 -0.362433
2.541300 2.625714 1.116897
2.350557 2.620379 1.034436
2.171409 2.612965 0.961955
2.011649 2.613970 0.899995
2.538304 2.624360 0.963289
2.326558 2.593626 0.881513
2.160261 2.595585 0.819653
2.009563 2.605232 0.765054
2.516026 2.602871 0.811649
2.316097 2.580785 0.741189
2.146644 2.577303 0.682905
1.993672 2.580997 0.631989
2.505812 2.592305 0.669139
2.312726 2.576306 0.607594
2.148015 2.577576 0.555823
1.990917 2.573435 0.507474
2.474355 2.560030 0.525939
2.312369 2.574190 0.477014
2.147008 2.573627 0.429468
2.006581 2.590879 0.388560
2.487425 2.573553 0.395903
2.310015 2.569945 0.347772
2.143789 2.567854 0.305252
1.998087 2.577308 0.266680
2.489314 2.573259 0.264112
2.393341 2.661900 0.229728
2.164468 2.590784 0.184608
2.636765 3.397456 0.194387
3.320167 3.429974 0.177463
3.092895 3.436330 0.127524
2.852123 3.410976 0.080327
2.648298 3.411579 0.037464
3.311890 3.418914 0.003240
3.101357 3.444282 -0.041580
2.858555 3.416003 -0.081327
2.684417 3.453750 -0.122032
4.232886 4.366012 -0.218732
3.729205 4.137774 -0.252263
2.367080 2.826078 -0.202683
2.212951 2.845218 -0.232650
2.367524 2.823303 -0.337334
2.194396 2.819330 -0.362332
2.557350 2.626127 1.120405
2.365656 2.620990 1.037538
2.183118 2.610720 0.963590
2.022613 2.611599 0.901311
2.550390 2.620718 0.964819
2.345547 2.598711 0.885683
2.178197 2.600866 0.823427
2.021727 2.604441 0.766639
2.530803 2.602135 0.813837
2.329246 2.579474 0.742861
2.158947 2.575962 0.684301
2.012427 2.588820 0.635414
2.524036 2.595178 0.671876
2.325901 2.575046 0.608977
2.159716 2.575509 0.556804
2.003052 2.572773 0.508553
2.500819 2.571576 0.529885
2.324906 2.572228 0.477970
2.165098 2.579183 0.431502
2.018183 2.589410 0.389266
2.505010 2.575886 0.397442
2.315886 2.560632 0.347472
2.156781 2.567365 0.305979
2.012728 2.579810 0.267576
2.503457 2.572042 0.264775
2.418234 2.673046 0.231329
2.167908 2.578781 0.184226
2.641642 3.382265 0.193981
3.334858 3.424067 0.177686
3.111475 3.435716 0.127855
2.877379 3.419806 0.080742
2.674758 3.423927 0.037689
3.351678 3.438815 0.003269
3.115938 3.439197 -0.041634
2.892850 3.435514 -0.082002
2.695616 3.446286 -0.122060
4.250447 4.357297 -0.218947
3.744566 4.129273 -0.252444
2.386035 2.831018 -0.203561
2.221055 2.837630 -0.232586
2.376816 2.816787 -0.337425
2.217145 2.830599 -0.364653
2.574096 2.627149 1.124205
2.382071 2.622953 1.041203
2.199171 2.613581 0.967131
2.034174 2.609947 0.902890
2.559094 2.613572 0.965074
2.363937 2.602985 0.889607
2.191803 2.600859 0.825550
2.029108 2.597458 0.766413
2.542869 2.598543 0.815150
2.356220 2.593305 0.748923
2.173157 2.576817 0.686296
2.024594 2.588046 0.636745
2.535424 2.590936 0.672788
2.339752 2.574458 0.610533
2.174606 2.577165 0.558601
2.016420 2.573615 0.509940
2.524610 2.580154 0.533246
2.344117 2.577543 0.480291
2.177481 2.577832 0.432392
2.027957 2.585550 0.389619
2.524719 2.580265 0.399311
2.328419 2.558666 0.348173
2.176220 2.574425 0.307615
2.020633 2.573622 0.267576
2.530176 2.583587 0.266761
2.351185 2.582960 0.224156
2.170650 2.566019 0.183789
2.671143 3.398492 0.195380
3.376822 3.445938 0.179358
3.119981 3.423938 0.127772
2.904655 3.430802 0.081212
2.694520 3.427496 0.037819
3.360812 3.427088 0.003267
3.126475 3.429621 -0.041634
2.914364 3.439591 -0.082312
2.709268 3.441927 -0.122200
4.260295 4.340670 -0.218768
3.759237 4.119980 -0.252580
3.634042 4.285025 -0.308910
2.227897 2.828450 -0.232393
2.225203 2.823002 -0.364552
2.588186 2.625369 1.126835
2.397873 2.624132 1.044586
2.209666 2.609759 0.968221
2.049316 2.612803 0.906049
2.571172 2.609841 0.966605
2.379759 2.604308 0.892550
2.206057 2.601534 0.827909
2.037669 2.591986 0.766639
2.557675 2.597682 0.817337
2.364825 2.586786 0.749132
2.195001 2.586574 0.690685
2.037382 2.587994 0.638267
2.551639 2.591552 0.674978
2.352957 2.573083 0.611915
2.188249 2.577249 0.560072
2.032259 2.577503 0.511943
2.541536 2.581561 0.535146
2.356695 2.575455 0.481247
2.187306 2.573407 0.432773
2.035879 2.579316 0.389619
2.537504 2.577466 0.400081
2.342305 2.558115 0.349074
2.193141 2.578356 0.308887
2.036552 2.577578 0.268636
2.531791 2.569419 0.266099
2.348315 2.563959 0.223131
2.188868 2.571513 0.184663
2.692712 3.404385 0.196193
3.392289 3.440543 0.179618
3.136551 3.420981 0.128020
2.922299 3.430246 0.081411
2.712468 3.428624 0.037924
3.382548 3.428150 0.003278
3.138334 3.421487 -0.041652
2.930741 3.437481 -0.082477
2.717953 3.431248 -0.122116
4.272890 4.326869 -0.218732
3.775237 4.112107 -0.252806
3.638097 4.263223 -0.308142
2.231605 2.815345 -0.231877
2.238182 2.821618 -0.365258
2.608351 2.629637 1.132097
2.407861 2.618882 1.045432
2.230142 2.617615 0.973670
2.062104 2.612562 0.908155
2.581209 2.604001 0.967370
2.392987 2.602704 0.894513
2.220335 2.602147 0.830268
2.049842 2.591070 0.768225
2.577307 2.601608 0.821057
2.376060 2.583117 0.750177
2.209926 2.588025 0.692880
2.049580 2.587118 0.639599
2.566498 2.590696 0.676803
2.366175 2.571650 0.613298
2.205117 2.581025 0.562360
2.043842 2.575900 0.512868
2.556406 2.580780 0.536607
2.366598 2.570399 0.481657
2.204861 2.577991 0.434679
2.061695 2.595609 0.393034
2.567084 2.591559 0.403489
2.352164 2.553112 0.349374
2.205574 2.576912 0.309523
2.054995 2.584580 0.270022
2.543173 2.565181 0.266467
2.358875 2.559678 0.223388
2.219481 2.591329 0.186574
2.707499 3.401579 0.196509
3.390864 3.418059 0.178986
3.168721 3.434853 0.128902
2.938015 3.427338 0.081555
2.726088 3.424198 0.037967
3.388118 3.412789 0.003273
3.156276 3.419926 -0.041750
2.954945 3.444409 -0.082860
2.730959 3.426020 -0.122228
4.282623 4.310195 -0.218552
3.789869 4.102706 -0.252942
3.642703 4.242193 -0.307428
2.264501 2.838911 -0.234389
2.259241 2.830289 -0.367276
2.621810 2.627038 1.134435
2.421097 2.617117 1.047688
2.245051 2.618796 0.976667
2.076110 2.613777 0.910787
2.603524 2.610446 0.972728
2.406886 2.601755 0.896720
2.240336 2.609331 0.834749
2.068095 2.597723 0.772075
2.591476 2.599908 0.823026
2.384638 2.576533 0.750386
2.219771 2.583463 0.693479
2.063628 2.588494 0.641501
2.586234 2.594649 0.679905
2.384090 2.575220 0.615891
2.567803 2.576428 0.537338
2.579232 2.587895 0.404149
2.077236 2.596162 0.271896
2.568638 2.575018 0.268306
2.712926 3.387019 0.196148
3.394981 3.401275 0.178652
3.192165 3.439036 0.129426
2.955046 3.425879 0.081736
2.749085 3.431426 0.038140
3.426134 3.429971 0.003300
3.191249 3.436606 -0.042073
2.968765 3.439112 -0.082951
2.746461 3.423863 -0.122451
4.035815 4.036952 -0.205324
3.801077 4.089596 -0.252852
3.641992 4.215131 -0.306275
2.273521 2.830326 -0.368184
2.636634 2.625730 1.137359
2.433690 2.614592 1.049661
2.256845 2.616268 0.978301
2.103395 2.631510 0.919211
2.617685 2.608589 0.975024
2.422122 2.602164 0.899418
2.253413 2.608328 0.836636
2.077273 2.592886 0.772528
2.602895 2.595391 0.824119
2.394531 2.571352 0.751013
2.229609 2.578864 0.694077
2.080774 2.593637 0.644355
2.608803 2.601281 0.683737
2.398693 2.575101 0.617620
2.584102 2.576921 0.539091
2.152893 2.676538 0.407281
2.591382 2.584181 0.404808
2.087067 2.592106 0.272141
2.569626 2.963141 0.214475
2.657478 3.297013 0.191407
3.387696 3.373215 0.177723
3.208841 3.435801 0.129674
2.966198 3.417552 0.081754
2.731357 3.387945 0.037750
3.460034 3.442719 0.003322
3.218162 3.444335 -0.042289
2.977991 3.428478 -0.082915
2.767626 3.428644 -0.122925
4.036134 4.012573 -0.204713
3.789042 4.051649 -0.251223
3.652286 4.200924 -0.306056
2.283445 2.824885 -0.368386
2.652154 2.625029 1.140574
2.448914 2.614817 1.052762
2.271799 2.617324 0.981298
2.115086 2.629555 0.920790
2.636668 2.611433 0.979106
2.440035 2.605335 0.903097
2.260130 2.599936 0.836164
2.096222 2.600150 0.776604
2.615004 2.591514 0.825432
2.407757 2.569702 0.752685
2.241370 2.576447 0.695274
2.094272 2.594116 0.646067
2.620961 2.597417 0.684832
2.412644 2.574198 0.619175
2.605345 2.582212 0.541868
2.177339 2.689989 0.410343
2.611299 2.588113 0.406677
2.098774 2.590337 0.272630
2.582264 2.557103 0.268085
2.566888 2.941701 0.213492
2.661917 3.281862 0.191000
3.344047 3.309384 0.174900
3.224159 3.431040 0.129867
2.986534 3.419732 0.082025
2.741738 3.379549 0.037750
3.366057 3.328724 0.003222
3.230769 3.436631 -0.042316
3.000338 3.432876 -0.083243
2.778762 3.420913 -0.122953
3.921890 3.875144 -0.198314
4.006827 4.258266 -0.264795
3.662527 4.186693 -0.305836
2.295240 2.821725 -0.368890
2.675193 2.631634 1.147005
2.466795 2.617765 1.056992
2.281717 2.612516 0.982115
2.125571 2.626054 0.921843
2.650180 2.608757 0.981146
2.455330 2.605598 0.905795
2.279612 2.606156 0.840410
2.108484 2.599002 0.778190
2.636846 2.597174 0.829808
2.427704 2.575111 0.756448
2.255072 2.576195 0.697070
2.104078 2.589965 0.646638
2.627517 2.587984 0.684467
2.612550 2.573513 0.541722
2.628432 2.589157 0.408106
2.122456 2.603197 0.274667
2.574583 2.932312 0.213383
2.678290 3.281419 0.191452
3.224520 3.171573 0.168139
3.242224 3.429122 0.130171
3.010872 3.426325 0.082404
2.755888 3.375769 0.037802
3.350579 3.293147 0.003198
3.250230 3.436147 -0.042432
3.021421 3.435668 -0.083535
2.815815 3.444878 -0.124124
3.435355 3.373642 -0.173188
4.109157 4.340259 -0.270677
3.673376 4.173188 -0.305672
3.290070 3.227585 -0.334331
2.697614 2.637454 1.153143
2.482736 2.618539 1.060375
2.292897 2.609118 0.983477
2.131181 2.616528 0.920790
2.671302 2.613462 0.985993
2.473984 2.609309 0.909720
2.301080 2.614469 0.845363
2.117680 2.594030 0.778643
2.654564 2.598628 0.832870
2.446362 2.579003 0.759792
2.270090 2.577353 0.699264
2.121334 2.594898 0.649492
2.640362 2.584726 0.685744
2.443309 2.575064 0.622978
2.631037 2.575866 0.543914
2.652699 2.597074 0.410635
2.134226 2.601297 0.275156
2.625710 2.568408 0.270954
2.583567 2.924399 0.213383
2.701660 3.289398 0.192400
3.229233 3.156776 0.167879
3.260998 3.427850 0.130502
3.017396 3.412578 0.082296
2.784639 3.389706 0.038054
3.419324 3.340152 0.003254
3.262135 3.427608 -0.042450
3.037248 3.432373 -0.083682
2.844785 3.458611 -0.124933
3.670253 3.582267 -0.184475
4.143124 4.349332 -0.272034
3.681527 4.156667 -0.305287
3.607029 3.516873 -0.365442
2.714609 2.637829 1.156943
2.504665 2.625489 1.066295
2.311726 2.614324 0.988109
2.141033 2.612216 0.921580
2.686933 2.612669 0.988800
2.487331 2.607318 0.911682
2.312956 2.611762 0.846779
2.129338 2.592036 0.780002
2.667419 2.595235 0.834402
2.469116 2.587049 0.764391
2.289685 2.583576 0.702855
2.134275 2.594443 0.651014
2.657441 2.585526 0.688116
2.466160 2.583230 0.626781
2.288251 2.580598 0.571349
2.128606 2.583598 0.522114
2.646017 2.574681 0.545375
2.470991 2.586571 0.493128
2.292765 2.582962 0.442560
2.186840 2.651449 0.407517
2.662079 2.590310 0.410855
2.154253 2.609340 0.276705
2.649308 2.575634 0.272573
2.594517 2.918698 0.213547
2.726376 3.298805 0.193439
3.233169 3.141283 0.167581
3.278411 3.425050 0.130777
3.041143 3.418244 0.082657
2.800122 3.387312 0.038123
3.353502 3.255808 0.003181
3.270561 3.415417 -0.042423
3.067710 3.445440 -0.084229
2.859844 3.455258 -0.125128
3.448818 3.345542 -0.172829
4.156449 4.336600 -0.272034
3.682969 4.132680 -0.304354
2.315736 2.795980 -0.234325
3.625680 3.513425 -0.366238
2.336985 2.819630 -0.371413
2.728880 2.635468 1.159574
2.523339 2.628867 1.070807
2.319096 2.606501 0.987836
2.160086 2.619031 0.926318
2.701194 2.610461 0.991096
2.500018 2.604571 0.913399
2.322897 2.606831 0.847486
2.146589 2.596752 0.783399
2.677473 2.589074 0.835058
2.487879 2.590747 0.767735
2.304122 2.583853 0.704850
2.142850 2.588640 0.651204
2.673842 2.585563 0.690306
2.483626 2.585596 0.629201
2.309293 2.588288 0.574617
2.145351 2.587704 0.524272
2.670260 2.582369 0.548736
2.302661 2.578135 0.442941
2.184183 2.631737 0.405515
2.161611 2.601952 0.276623
2.686603 2.595907 0.275589
2.731373 3.284280 0.193077
3.238478 3.127184 0.167359
3.286130 3.412096 0.130667
3.056284 3.414113 0.082784
2.820094 3.390237 0.038253
3.354840 3.237172 0.003173
3.298369 3.423370 -0.042648
3.082269 3.440481 -0.084339
2.876189 3.453380 -0.125379
3.354747 3.234370 -0.167616
4.184296 4.338929 -0.272984
3.693631 4.119131 -0.304189
2.338359 2.805727 -0.235742
3.304550 3.182638 -0.332812
2.353271 2.821616 -0.372624
2.749372 2.639003 1.164835
2.538724 2.628704 1.073908
2.342485 2.616579 0.994375
2.177353 2.623527 0.930266
2.714769 2.607520 0.993136
2.515405 2.604559 0.916097
2.330884 2.599692 0.847486
2.167626 2.605879 0.788155
2.693143 2.588285 0.837465
2.504649 2.592245 0.770452
2.320546 2.586254 0.707444
2.153296 2.585070 0.651965
2.321837 2.586330 0.575761
2.156445 2.584904 0.525042
2.810493 2.701349 0.431194
2.181729 2.609837 0.278172
2.662905 2.557258 0.272352
2.806190 3.353262 0.197638
3.119720 2.994067 0.160746
3.276409 3.381180 0.129867
3.054030 3.390605 0.082440
2.822138 3.371601 0.038140
3.359704 3.222019 0.003169
3.302592 3.406772 -0.042567
3.100843 3.439920 -0.084558
2.914379 3.477484 -0.126578
3.316309 3.177737 -0.165208
4.201762 4.330373 -0.273255
3.712271 4.114452 -0.304683
3.281877 3.141449 -0.329556
2.363196 2.815907 -0.372826
2.765067 2.637817 1.168051
2.553463 2.627784 1.076727
2.357585 2.617244 0.997371
2.193430 2.626461 0.933688
2.726253 2.602517 0.994412
2.530816 2.604478 0.918795
2.342103 2.596136 0.848666
2.181237 2.605939 0.790193
2.721534 2.599556 0.843809
2.518725 2.590859 0.772333
2.333722 2.584941 0.709040
2.175090 2.595005 0.656150
2.172623 2.588114 0.527045
2.186234 2.601560 0.402925
2.826673 2.700266 0.432404
2.201916 2.617622 0.279720
2.706088 2.582816 0.275957
2.849281 3.383608 0.199941
3.058750 2.917577 0.157142
3.271415 3.355366 0.129261
3.060389 3.376774 0.082332
2.838910 3.370575 0.038227
3.355095 3.197898 0.003155
3.329087 3.413088 -0.042773
3.108695 3.427428 -0.084485
2.949522 3.497564 -0.127638
3.345582 3.186157 -0.166179
4.211538 4.313887 -0.273029
3.730245 4.108958 -0.305123
3.287886 3.127929 -0.329194
2.779392 2.635244 1.170681
2.563525 2.621996 1.077573
2.370127 2.614989 0.999278
2.201478 2.619719 0.933688
2.748253 2.607451 0.999514
2.542861 2.600860 0.920266
2.355935 2.595414 0.850788
2.190477 2.600725 0.790646
2.742234 2.603287 0.847747
2.536919 2.593606 0.775469
2.352843 2.590099 0.712431
2.196966 2.604829 0.660335
2.185654 2.587474 0.528278
2.193564 2.594082 0.402807
2.842152 2.698425 0.433503
2.221527 2.624548 0.281188
2.732811 2.592347 0.277870
2.880961 3.400002 0.201431
3.068412 2.908867 0.157180
3.280293 3.343886 0.129206
3.075450 3.372541 0.082458
2.856996 3.371004 0.038331
3.368521 3.191028 0.003158
3.354252 3.417846 -0.042962
3.120543 3.419352 -0.084521
2.960886 3.489261 -0.127666
3.318326 3.140842 -0.164345
4.215653 4.291682 -0.272441
3.740814 4.095283 -0.304958
3.294568 3.115086 -0.328905
2.809736 2.647692 1.180035
2.574921 2.617538 1.078983
2.383325 2.613393 1.001458
2.218848 2.624003 0.937637
2.766792 2.608957 1.003341
2.554907 2.597193 0.921738
2.373062 2.598220 0.854091
2.210411 2.608111 0.794949
2.750918 2.595531 0.847966
2.555153 2.596265 0.778604
2.368050 2.590825 0.714626
2.210665 2.604814 0.662048
2.196142 2.583768 0.528895
2.362255 2.580412 0.448279
2.213096 2.600954 0.404926
2.856200 2.695149 0.434383
2.234738 2.623790 0.281840
2.755264 2.597633 0.279341
2.899804 3.401030 0.202018
3.070775 2.893272 0.156845
3.329158 3.372936 0.130722
3.141888 3.424237 0.083958
2.879004 3.375918 0.038487
3.306215 3.112815 0.003091
3.366127 3.408963 -0.042979
3.137105 3.416390 -0.084686
3.185779 3.731024 -0.136868
3.283544 3.088877 -0.162153
4.003386 4.050652 -0.257919
3.767549 4.099225 -0.306111
3.306290 3.107013 -0.329122
2.824826 2.645596 1.182958
2.591038 2.617809 1.082366
2.403691 2.619538 1.006634
2.225638 2.615714 0.937110
2.783249 2.608391 1.006402
2.572411 2.598989 0.925172
2.390228 2.600944 0.857393
2.226618 2.610951 0.797894
2.778798 2.605768 0.854091
2.565171 2.590498 0.779231
2.381294 2.589317 0.716222
2.228209 2.609217 0.664901
2.374108 2.580148 0.580828
2.212407 2.586779 0.530898
2.225586 2.599432 0.405751
2.867356 2.689094 0.434823
2.242778 2.616922 0.281840
2.761765 2.587804 0.279194
2.899817 3.379986 0.201295
3.092767 2.896132 0.157514
3.349352 3.372637 0.131108
3.151022 3.413112 0.083922
2.922558 3.405772 0.038930
3.390958 3.173032 0.003161
3.385731 3.407841 -0.043096
3.148929 3.408218 -0.084722
3.292971 3.832688 -0.140967
3.427325 3.204370 -0.168767
4.003114 4.025601 -0.257104
3.787565 4.095711 -0.306715
3.425143 3.198971 -0.339975
2.839929 2.643433 1.185881
2.605151 2.615966 1.084904
2.418897 2.619928 1.009631
2.241182 2.617668 0.940269
2.805389 2.613020 1.011504
2.587213 2.597954 0.927625
2.402155 2.597880 0.858808
2.239058 2.609282 0.799479
2.806052 2.615193 0.859998
2.582079 2.591622 0.781948
2.397878 2.591349 0.718816
2.236203 2.602369 0.664901
2.231289 2.592711 0.533518
2.390854 2.579691 0.450694
2.245217 2.606134 0.407870
2.882136 2.686384 0.435812
2.380385 2.566507 0.319429
2.250145 2.609274 0.281758
2.782828 2.591553 0.280518
2.905603 3.365780 0.200979
3.165280 2.945860 0.160746
3.375934 3.378609 0.131742
3.169644 3.412219 0.084138
2.964362 3.433119 0.039346
3.435825 3.195302 0.003194
3.396171 3.397438 -0.043096
3.160732 3.400006 -0.084759
3.294254 3.810468 -0.140521
3.469351 3.223772 -0.170348
3.987890 3.985759 -0.255340
3.798072 4.081879 -0.306550
3.476608 3.227124 -0.344099
2.853642 2.639903 1.188220
2.625388 2.620161 1.089978
2.433472 2.619544 1.012355
2.246683 2.607856 0.939216
2.831132 2.620822 1.017882
2.603406 2.598222 0.930568
2.428648 2.610420 0.865413
2.252782 2.609035 0.801517
2.835538 2.626464 0.866562
2.599710 2.593357 0.784875
2.411159 2.589718 0.720412
2.247388 2.599210 0.665853
2.808815 2.601711 0.710561
2.404689 2.581413 0.584423
2.243114 2.590335 0.534443
2.258406 2.605237 0.408812
2.390965 2.562105 0.319792
2.256180 2.600100 0.281514
2.790034 2.582325 0.280445
2.918536 3.359867 0.201160
3.183840 2.944957 0.161229
3.374235 3.356251 0.131274
3.184194 3.406862 0.084247
2.982095 3.432311 0.039441
3.422847 3.163705 0.003173
3.410833 3.391233 -0.043150
3.188223 3.408548 -0.085215
3.469290 3.988136 -0.147465
3.494643 3.227351 -0.171103
3.972459 3.946049 -0.253575
3.807165 4.066562 -0.306275
3.501153 3.229969 -0.345546
2.870175 2.638903 1.191727
2.643631 2.622229 1.094208
2.453323 2.624718 1.017259
2.256569 2.603138 0.940006
2.851967 2.623908 1.022474
2.626507 2.605243 0.935964
2.446607 2.613598 0.868951
2.267164 2.609464 0.803782
2.859377 2.632292 0.871375
2.615293 2.592943 0.787174
2.424452 2.588030 0.722008
2.257284 2.594524 0.666423
2.827634 2.603070 0.713298
2.607892 2.584883 0.644413
2.421368 2.583381 0.586548
2.262085 2.596105 0.537062
2.422927 2.582333 0.453744
2.266388 2.598296 0.408812
2.902952 2.672688 0.436472
2.264146 2.593166 0.281514
2.799411 2.575104 0.280592
2.922256 3.343376 0.200708
3.197274 2.939233 0.161452
3.250870 3.213763 0.126090
3.202166 3.405089 0.084445
2.988663 3.418629 0.039389
3.343428 3.071332 0.003090
3.314530 3.275324 -0.041804
3.220593 3.422049 -0.085799
3.609234 4.123394 -0.152875
3.408816 3.128766 -0.166430
3.404459 3.361137 -0.216659
3.896988 4.136992 -0.312479
3.362547 3.083056 -0.330931
2.892377 2.642987 1.197573
2.669428 2.631618 1.101538
2.466638 2.622786 1.019438
2.272155 2.604927 0.943165
2.868567 2.622976 1.025535
2.641391 2.603978 0.938417
2.461943 2.613861 0.871545
2.278364 2.606163 0.804915
2.872478 2.628118 0.872906
2.626022 2.587653 0.788010
2.437086 2.585571 0.723404
2.277520 2.601622 0.670038
2.845037 2.603011 0.715670
2.620721 2.581708 0.645623
2.432667 2.579529 0.587365
2.277204 2.597325 0.538758
2.278935 2.596555 0.409636
2.412112 2.553177 0.320519
2.283274 2.598936 0.282899
2.820548 2.578616 0.281916
2.952951 3.357649 0.202108
3.207752 2.930758 0.161526
3.217219 3.161039 0.124408
3.222218 3.405416 0.084698
3.008383 3.419955 0.039511
3.591374 3.278840 0.003310
3.373789 3.313486 -0.042423
3.243450 3.425221 -0.086128
3.627153 4.118303 -0.153098
3.491492 3.184969 -0.169989
3.626528 3.558476 -0.230095
3.359458 3.061305 -0.329701
3.331495 3.265899 -0.383147
2.903304 2.636673 1.198743
2.698049 2.643560 1.109996
2.480624 2.621496 1.021890
2.301136 2.621871 0.951852
2.891628 2.627819 1.030892
2.659062 2.605361 0.941850
2.477972 2.614760 0.874376
2.290209 2.603549 0.806273
2.881972 2.620606 0.873343
2.640935 2.586426 0.790100
2.450401 2.583770 0.725000
2.293278 2.603462 0.672321
2.861011 2.601546 0.717677
2.642705 2.587437 0.649080
2.450755 2.582789 0.589816
2.291698 2.597736 0.540299
2.853608 2.595087 0.569780
2.452388 2.581801 0.456286
2.294778 2.598483 0.411049
2.910473 2.646801 0.435152
2.429539 2.555870 0.321792
2.287936 2.588185 0.282492
2.838779 2.579340 0.282946
3.041358 3.436852 0.207436
3.206371 2.911498 0.161006
3.229763 3.153947 0.124518
3.260227 3.424480 0.085421
3.025489 3.418198 0.039598
3.590308 3.257727 0.003300
3.360325 3.280070 -0.042127
3.258771 3.420321 -0.086255
3.644412 4.112392 -0.153293
3.528641 3.199078 -0.171319
3.628846 3.538963 -0.229553
3.264597 2.956583 -0.319500
3.380047 3.293220 -0.387567
2.917059 2.632879 1.201081
2.713020 2.641964 1.112816
2.493963 2.619449 1.024070
2.307253 2.612629 0.951062
2.912592 2.630601 1.035484
2.678155 2.608013 0.945775
2.490677 2.612069 0.876027
2.312388 2.612556 0.811256
2.890722 2.612406 0.873562
2.658669 2.587861 0.793027
2.467111 2.585456 0.727594
2.301254 2.596414 0.672321
2.885027 2.607260 0.721692
2.654160 2.582751 0.649944
2.462755 2.579539 0.590797
2.304249 2.595865 0.541377
2.865959 2.590300 0.570657
2.651875 2.578816 0.509926
2.466466 2.580718 0.457430
2.302739 2.591430 0.411049
2.923004 2.641858 0.435812
2.464903 2.577191 0.325427
2.301827 2.587856 0.283225
2.888128 2.608048 0.287066
3.052552 3.428251 0.207482
3.203418 2.890935 0.160412
3.232968 3.137758 0.124270
3.274867 3.418794 0.085529
3.050593 3.425328 0.039788
3.472552 3.131508 0.003183
3.358889 3.258604 -0.041984
3.281704 3.423299 -0.086584
3.661668 4.106415 -0.153489
3.554030 3.202285 -0.172074
3.421621 3.316450 -0.215799
3.410055 3.069326 -0.332812
3.404454 3.296701 -0.389204
2.925835 2.624556 1.201373
2.725938 2.638299 1.114789
2.511306 2.621512 1.027884
2.320384 2.611308 0.953168
2.931442 2.631341 1.039311
2.698683 2.611920 0.950190
2.502715 2.608622 0.877442
2.332053 2.618542 0.815333
2.911790 2.615261 0.877500
2.670813 2.583772 0.794281
2.481139 2.584236 0.729389
2.312477 2.593006 0.673272
2.902522 2.606937 0.724064
2.669152 2.581444 0.651673
2.482959 2.584778 0.593739
2.322075 2.599838 0.543689
2.880516 2.587445 0.571972
2.668322 2.578929 0.511564
2.487434 2.586723 0.459845
2.318621 2.593237 0.412462
2.924440 2.626900 0.434823
2.737368 2.644000 0.383020
2.906507 2.608500 0.288096
2.651875 2.560708 0.236581
3.047723 3.401756 0.206443
3.204089 2.873754 0.160003
3.189340 3.076469 0.122230
3.284647 3.408011 0.085511
3.049742 3.403293 0.039641
3.356292 3.008047 0.003068
3.345115 3.225380 -0.041688
3.304685 3.426168 -0.086913
3.664236 4.084001 -0.153070
3.403029 3.047365 -0.164309
3.296522 3.175641 -0.207294
3.238819 2.897263 -0.315231
3.281704 3.158385 -0.374062
2.941011 2.621931 1.204296
2.737477 2.633249 1.116199
2.522676 2.617259 1.029246
2.338673 2.615684 0.957379
2.943830 2.626197 1.040842
2.712972 2.609677 0.952397
2.516106 2.606525 0.879329
2.343975 2.615728 0.816692
2.930719 2.616063 0.880782
2.692121 2.588444 0.798252
2.498587 2.586479 0.732182
2.327633 2.593936 0.675365
2.915641 2.602603 0.725341
2.680609 2.576656 0.652537
2.499791 2.586370 0.595863
2.334003 2.597111 0.544614
2.894345 2.583866 0.573141
2.689795 2.583770 0.514159
2.506394 2.590485 0.461879
2.335865 2.596447 0.414111
2.934710 2.619901 0.435152
2.785662 2.674176 0.388628
2.329668 2.587015 0.284692
2.932358 2.615503 0.289862
2.639559 2.533212 0.234788
3.056139 3.390164 0.206308
3.142480 3.012711 0.120079
3.288126 3.390740 0.085330
3.062848 3.396891 0.039676
3.408815 3.036313 0.003107
3.425026 3.282213 -0.042558
3.319359 3.420318 -0.087022
3.213220 3.559289 -0.133773
3.377276 3.005684 -0.162620
3.360368 3.217326 -0.210687
3.246202 2.885987 -0.315086
3.457748 3.307440 -0.392969
3.221014 2.859672 -0.471419
2.965504 2.627483 1.211019
2.750397 2.629479 1.118172
2.538062 2.617105 1.032243
2.349913 2.612082 0.958696
2.964173 2.628058 1.045178
2.728673 2.608711 0.955095
2.533570 2.608553 0.882631
2.356555 2.613588 0.818277
2.952600 2.619363 0.884938
2.703584 2.583550 0.799297
2.512657 2.585125 0.733978
2.339528 2.591155 0.676506
2.933173 2.602128 0.727713
2.694911 2.574543 0.654093
2.516655 2.587883 0.597988
2.345273 2.593602 0.545384
2.914098 2.585479 0.575479
2.704875 2.582346 0.515525
2.521940 2.590602 0.463277
2.350484 2.596631 0.415288
2.936043 2.604949 0.434163
2.798892 2.670425 0.389329
2.944846 2.610464 0.290303
2.650207 2.527857 0.235044
3.057129 3.370413 0.205675
3.188001 2.824221 0.158331
3.141576 2.993402 0.119693
3.306893 3.389224 0.085547
3.098115 3.414880 0.039997
3.462291 3.064948 0.003147
3.410461 3.248241 -0.042253
3.334027 3.414410 -0.087132
3.210682 3.534615 -0.133215
3.395464 3.003254 -0.163051
3.368051 3.204936 -0.210551
3.363417 2.971771 -0.325577
3.467879 3.296816 -0.392969
3.221573 2.842542 -0.470223
2.983600 2.627220 1.215112
2.766102 2.628298 1.121274
2.556831 2.620325 1.036601
2.361153 2.608437 0.960012
2.981653 2.627262 1.048495
2.742989 2.606337 0.957303
2.551749 2.611193 0.886169
2.371761 2.614281 0.820768
2.972333 2.620617 0.888439
2.739152 2.601508 0.807449
2.532224 2.589314 0.737370
2.350767 2.587598 0.677457
2.949255 2.600270 0.729721
2.713511 2.576436 0.656686
2.533553 2.589317 0.600112
2.363193 2.597357 0.547696
2.926469 2.580452 0.576356
2.730750 2.591082 0.518939
2.538899 2.592064 0.464929
2.367132 2.598951 0.416819
2.948494 2.599873 0.434823
2.820068 2.674148 0.391131
2.957331 2.605372 0.290744
2.658674 2.520401 0.235108
3.068802 3.362494 0.205766
3.195151 2.813106 0.158257
3.147842 2.981000 0.119583
3.325680 3.387624 0.085764
3.107228 3.403882 0.039979
3.324522 2.924847 0.003014
3.416053 3.233638 -0.042199
3.354998 3.414864 -0.087406
3.202628 3.504088 -0.132434
3.405413 2.993483 -0.163087
3.371336 3.188410 -0.210144
3.968825 4.035980 -0.311216
3.332798 2.926559 -0.321742
3.319327 3.136261 -0.375044
3.228036 2.830678 -0.469896
3.016115 2.639467 1.225050
2.776245 2.621776 1.122120
2.570924 2.618647 1.039053
2.378239 2.611166 0.963697
3.005702 2.632116 1.054107
2.760840 2.607228 0.960737
2.559066 2.602659 0.885933
2.381741 2.609150 0.821448
2.988432 2.618559 0.890845
2.755654 2.601147 0.809957
2.549090 2.590613 0.739963
2.364656 2.586896 0.679170
2.960177 2.593801 0.730451
2.737879 2.583646 0.660661
2.551174 2.591374 0.602400
2.375154 2.594467 0.548620
2.951484 2.586457 0.579717
2.742290 2.586090 0.519622
2.554498 2.592034 0.466327
2.374423 2.590945 0.416701
2.969164 2.601951 0.436692
2.834051 2.670943 0.391932
2.371570 2.585294 0.286893
2.961559 2.593002 0.290377
2.667846 2.513601 0.235236
3.070995 3.344233 0.205224
3.201510 2.801316 0.158145
3.170075 2.983660 0.120079
3.343787 3.385230 0.085963
3.142685 3.421582 0.040300
3.289064 2.875798 0.002974
3.369149 3.169698 -0.041499
3.383031 3.422331 -0.087862
3.207274 3.487624 -0.132183
3.339320 2.917272 -0.159493
3.368000 3.165737 -0.209330
3.974166 4.016687 -0.310667
3.309448 2.888121 -0.318631
3.304232 3.102866 -0.372261
3.235207 2.819455 -0.469679
3.047289 2.650284 1.234404
2.799666 2.627691 1.128322
2.585708 2.617593 1.041778
2.399926 2.618794 0.969225
3.019598 2.627961 1.056148
2.799222 2.627274 0.971283
2.568406 2.596178 0.886405
2.393028 2.605417 0.822580
3.004546 2.616427 0.893252
2.770753 2.599372 0.812047
2.563231 2.589048 0.741759
2.390525 2.599139 0.684306
2.976277 2.591810 0.732458
2.753695 2.582646 0.662563
2.571610 2.596151 0.605342
2.389796 2.594436 0.550161
2.979547 2.594932 0.583662
2.753102 2.580375 0.520168
2.567327 2.589115 0.467217
2.388420 2.590218 0.417761
2.986877 2.601316 0.438121
2.855303 2.674479 0.393735
2.681373 2.510861 0.235748
3.107680 3.363411 0.206985
3.212351 2.793448 0.158257
3.172644 2.967775 0.119831
3.383054 3.404032 0.086703
3.155203 3.414128 0.040326
3.312968 2.878812 0.002987
3.460664 3.235838 -0.042504
3.399155 3.417607 -0.088008
3.205059 3.463828 -0.131653
3.307505 2.871634 -0.157551
3.430256 3.204489 -0.212587
3.961815 3.979708 -0.308746
3.303977 2.865539 -0.317257
3.420842 3.192677 -0.384293
3.253610 2.817977 -0.471093
3.072046 2.655306 1.241127
2.832270 2.641995 1.138190
2.605257 2.621249 1.046409
2.425607 2.630568 0.976332
3.031303 2.621847 1.057424
2.810813 2.621980 0.972510
2.581158 2.593107 0.888056
2.403655 2.600925 0.823486
3.015510 2.609752 0.894127
2.788728 2.600195 0.814974
2.580843 2.590891 0.744552
2.405156 2.598998 0.686209
2.993136 2.590387 0.734647
2.768090 2.580230 0.664118
2.591402 2.600128 0.608120
2.399759 2.589266 0.550624
3.003950 2.600022 0.586877
2.762456 2.573267 0.520441
2.592072 2.598079 0.470267
2.399732 2.586518 0.418349
3.003862 2.599945 0.439440
2.870778 2.672486 0.394736
2.694177 2.507382 0.236197
3.142471 3.380201 0.208610
3.220150 2.782926 0.158220
3.183198 2.959389 0.119886
3.395602 3.395758 0.086757
3.178601 3.418345 0.040491
3.377791 2.917000 0.003038
3.467645 3.222482 -0.042468
3.408210 3.405749 -0.087971
3.203411 3.440809 -0.131151
3.357157 2.896727 -0.159493
3.477408 3.228615 -0.214894
3.959873 3.953425 -0.307648
3.343727 2.882087 -0.320223
3.488345 3.235711 -0.390759
3.091785 2.655839 1.245804
2.845287 2.637860 1.140164
2.628255 2.628212 1.052402
2.440228 2.630186 0.978965
3.051798 2.623249 1.061761
2.823821 2.617958 0.974227
2.615921 2.611955 0.897255
2.420245 2.602811 0.826430
3.031640 2.607487 0.896533
2.824666 2.617550 0.823126
2.592248 2.586421 0.745549
2.419139 2.598073 0.687921
3.019704 2.597221 0.739209
2.783941 2.579089 0.666020
2.603558 2.596346 0.609101
2.419147 2.594176 0.553244
3.015663 2.594019 0.587608
2.783422 2.576893 0.522899
2.601436 2.591514 0.470521
2.413755 2.585677 0.419409
3.032169 2.608218 0.442409
2.888457 2.672451 0.396038
2.409554 2.578650 0.288604
2.701124 2.498427 0.236133
2.848605 2.833682 0.219717
3.175347 3.394619 0.210100
3.220334 2.765872 0.157811
3.181984 2.940111 0.119500
3.401749 3.381095 0.086649
3.195905 3.415879 0.040578
3.319187 2.848661 0.002977
3.434909 3.172478 -0.041948
3.407292 3.384004 -0.087679
3.201651 3.417834 -0.130649
3.375890 2.894871 -0.159960
3.426361 3.161703 -0.211139
3.962061 3.931412 -0.306879
3.325285 2.848456 -0.317618
3.507782 3.233776 -0.391823
3.105010 2.650687 1.247850
2.861128 2.636269 1.143265
2.642448 2.626240 1.054854
2.452235 2.626918 0.980544
3.074535 2.626435 1.066863
2.839681 2.616508 0.976924
2.631510 2.611447 0.899850
2.440863 2.608888 0.830733
3.047043 2.604514 0.898721
2.843473 2.618809 0.826261
2.609216 2.587426 0.748143
2.430455 2.594221 0.688872
3.038122 2.596888 0.741764
2.801985 2.579876 0.668440
2.614314 2.591124 0.609755
2.433856 2.593947 0.554785
3.028118 2.588612 0.588485
2.802979 2.579074 0.525084
2.615718 2.589802 0.471665
2.430515 2.587670 0.420940
3.048467 2.606008 0.443618
2.907629 2.673678 0.397540
2.712450 2.493505 0.236453
2.866515 2.834055 0.220427
3.198755 3.398683 0.210958
3.223484 2.751438 0.157551
3.149758 2.892472 0.117956
3.187335 3.148603 0.080941
3.213224 3.413339 0.040665
3.255631 2.776815 0.002913
3.324550 3.051704 -0.040486
3.303807 3.261154 -0.084759
3.218292 3.414542 -0.130900
3.377910 2.878666 -0.159636
3.381562 3.101211 -0.207792
3.245399 3.200594 -0.250609
3.321097 2.827250 -0.316388
3.358961 3.077570 -0.374143
3.317350 3.267785 -0.426317
3.121149 2.647955 1.251065
2.876986 2.634607 1.146366
2.656653 2.624206 1.057306
2.461604 2.620789 0.981070
3.095109 2.627628 1.071200
2.859135 2.618260 0.980849
2.643660 2.607455 0.901265
2.461540 2.614862 0.835037
3.066918 2.605261 0.902222
2.863757 2.621298 0.829814
2.622027 2.584224 0.749539
2.445136 2.593897 0.690774
3.059563 2.599013 0.745049
2.838225 2.597199 0.675181
2.637011 2.597630 0.613187
2.445194 2.590060 0.555555
3.048109 2.589558 0.590823
2.840851 2.597872 0.530683
2.632135 2.590113 0.473190
2.454130 2.596801 0.423648
3.066295 2.605009 0.445047
2.923897 2.672129 0.398641
2.722298 2.487191 0.236645
2.876621 2.826647 0.220536
3.210541 3.390304 0.211049
3.229624 2.739596 0.157440
3.149757 2.874709 0.117625
3.192700 3.134607 0.080833
3.251186 3.432505 0.041012
3.283968 2.783625 0.002930
3.409248 3.110232 -0.041401
3.370180 3.306318 -0.086201
3.224626 3.400300 -0.130733
3.271573 2.770764 -0.154209
3.458247 3.152059 -0.211909
3.399245 3.331806 -0.261698
3.293206 2.786126 -0.312916
3.417023 3.111538 -0.379546
3.131452 2.640216 1.251942
2.894279 2.634163 1.150032
2.681170 2.632221 1.063845
2.473609 2.617432 0.982650
3.116459 2.629343 1.075792
2.879343 2.620569 0.985019
2.659975 2.607496 0.904095
2.478258 2.616491 0.837981
3.088318 2.607170 0.906160
2.873232 2.613816 0.830232
2.639744 2.585767 0.752332
2.459839 2.593506 0.692677
3.084802 2.604202 0.749246
2.857838 2.599083 0.677947
2.652017 2.596429 0.614821
2.455170 2.584695 0.556017
3.065110 2.587852 0.592577
2.858338 2.597806 0.532458
2.643614 2.585493 0.473826
2.468928 2.596455 0.424825
3.077311 2.598154 0.445487
2.937237 2.667829 0.399342
2.730654 2.479498 0.236709
2.882422 2.815018 0.220318
3.226440 3.386224 0.211410
3.231137 2.723878 0.157105
3.153379 2.860331 0.117432
3.192283 3.115021 0.080580
3.268600 3.429753 0.041098
3.375857 2.843761 0.003005
3.460999 3.138043 -0.041912
3.320176 3.237331 -0.084667
4.162495 4.362380 -0.168213
3.338930 2.810265 -0.156976
3.476786 3.149483 -0.212451
3.597554 3.504605 -0.276136
3.321587 2.792698 -0.314797
3.494537 3.162566 -0.387076
3.311679 2.780522 -0.473269
3.154198 2.642880 1.257788
2.920136 2.641361 1.157080
2.703006 2.637422 1.069293
2.487610 2.616123 0.985019
3.134884 2.628467 1.079363
2.895278 2.618876 0.987717
2.675619 2.606782 0.906690
2.493666 2.616631 0.840472
3.108262 2.607717 0.909660
2.895020 2.617450 0.834204
2.651877 2.581757 0.753529
2.476595 2.595180 0.695150
3.093530 2.595357 0.749428
2.879682 2.602851 0.681231
2.670576 2.598601 0.617272
2.469915 2.584294 0.557559
3.077582 2.582252 0.593454
2.873646 2.595664 0.533824
2.658647 2.584284 0.475097
2.477569 2.589586 0.424943
3.091359 2.593811 0.446366
2.948362 2.661472 0.399743
2.494098 2.604313 0.294880
3.063943 2.568531 0.294938
2.732322 2.465760 0.236197
2.886746 2.801989 0.219990
3.247184 3.387126 0.212087
3.223393 2.700475 0.156325
3.148775 2.838595 0.116936
3.141535 3.046742 0.079063
3.286028 3.426927 0.041185
3.360795 2.813492 0.002983
3.478039 3.134104 -0.042002
3.312860 3.210430 -0.084229
4.185551 4.359685 -0.168603
3.346770 2.799367 -0.156940
3.369871 3.033863 -0.205349
3.314174 3.208788 -0.253628
3.304882 2.761391 -0.312409
3.456799 3.109175 -0.381837
3.272122 3.164424 -0.416744
3.316377 2.767164 -0.472725
3.184338 2.651549 1.266557
2.927512 2.631749 1.156798
2.717992 2.635815 1.072018
2.503628 2.616843 0.988178
3.162247 2.634930 1.085996
2.906903 2.613222 0.988943
2.703151 2.617490 0.913294
2.507749 2.615296 0.842510
3.128989 2.608791 0.913379
2.905219 2.610516 0.834831
2.673869 2.587237 0.757520
2.494745 2.598192 0.698004
3.121112 2.602224 0.754172
2.900843 2.605852 0.684343
2.689174 2.600683 0.619724
2.485365 2.584538 0.559254
3.091568 2.577866 0.594623
2.890442 2.594777 0.535463
2.677263 2.586453 0.477003
2.493078 2.589843 0.426238
3.108462 2.591953 0.447686
2.964660 2.659722 0.400844
3.088665 2.573162 0.296556
2.750274 2.466694 0.237093
2.896048 2.793813 0.220045
3.272818 3.392966 0.213081
3.204783 2.668194 0.155025
3.146301 2.818916 0.116522
3.139349 3.025988 0.078774
3.297221 3.417549 0.041194
3.331743 2.771830 0.002950
3.264911 2.923952 -0.039319
3.342137 3.218978 -0.084722
4.206546 4.354732 -0.168910
3.366102 2.798030 -0.157444
3.253347 2.910936 -0.197703
3.280834 3.157065 -0.250334
3.334057 2.768442 -0.314363
3.227803 2.885342 -0.355563
3.281097 3.153681 -0.416653
3.324086 2.756342 -0.472616
3.203510 2.650913 1.270942
2.950597 2.636179 1.162719
2.730223 2.631471 1.073652
2.526364 2.624441 0.993969
3.173295 2.627683 1.087016
2.918522 2.607521 0.990169
2.719571 2.617270 0.916125
2.523876 2.616002 0.845228
3.161022 2.619101 0.920380
2.924885 2.612013 0.838175
2.698745 2.595323 0.762308
2.504751 2.592644 0.698574
3.132109 2.595146 0.754902
2.917641 2.604812 0.686417
2.700696 2.595839 0.620541
2.509772 2.593943 0.562952
3.124599 2.589199 0.599445
2.905041 2.591833 0.536692
2.695202 2.587845 0.478783
2.506538 2.587888 0.427180
3.130176 2.593820 0.449665
2.997313 2.672466 0.404149
3.110372 2.575122 0.297881
2.773473 2.472190 0.238438
2.906767 2.786988 0.220208
3.285299 3.385060 0.213216
3.207564 2.653891 0.154765
3.133285 2.789972 0.115723
3.098800 2.968617 0.077527
3.313262 3.413157 0.041263
3.338689 2.760321 0.002949
3.632401 3.233037 -0.043625
3.443724 3.296515 -0.087040
4.221976 4.343956 -0.168994
3.270656 2.701767 -0.152591
3.351097 2.979937 -0.203087
3.390807 3.242913 -0.257965
3.330995 2.748678 -0.313277
3.411734 3.030980 -0.374798
3.303718 3.155982 -0.418294
3.296470 2.716419 -0.467503
3.222707 2.650183 1.275326
2.960823 2.629025 1.163565
2.735504 2.620420 1.072562
2.541787 2.624300 0.996864
3.191047 2.625922 1.090333
2.930857 2.602417 0.991641
2.733908 2.614960 0.918248
2.544101 2.620826 0.849305
3.184108 2.621796 0.924755
2.937273 2.606922 0.839429
2.717320 2.597187 0.765300
2.532537 2.605362 0.704092
3.156755 2.599274 0.758917
2.937407 2.606307 0.689183
2.712214 2.590948 0.621358
2.525989 2.594727 0.564802
3.140928 2.586518 0.601053
2.927804 2.596052 0.539423
2.714610 2.590520 0.480816
2.520011 2.585876 0.428122
3.149628 2.593682 0.451314
3.008477 2.665897 0.404549
3.129040 2.574438 0.298911
2.792996 2.474257 0.239463
2.917473 2.780123 0.220372
3.301253 3.380683 0.213577
3.211832 2.640864 0.154579
3.132098 2.771734 0.115364
3.080377 2.932898 0.076841
3.325814 3.405122 0.041289
3.388093 2.783710 0.002985
3.410118 3.016494 -0.040844
3.455270 3.287313 -0.087077
4.240875 4.336700 -0.169217
3.356945 2.755764 -0.156221
3.375943 2.983534 -0.204037
3.401464 3.233183 -0.258020
3.342497 2.740975 -0.313567
3.332111 2.942001 -0.365058
3.317718 3.149945 -0.418841
3.333245 2.729596 -0.471528
3.238968 2.646940 1.278542
2.976788 2.626912 1.166666
2.753286 2.621303 1.076376
2.558579 2.625472 1.000286
3.208819 2.624077 1.093649
2.951912 2.604959 0.996056
2.748257 2.612586 0.920371
2.558936 2.619977 0.851570
3.208750 2.625610 0.929568
2.951124 2.603073 0.841101
2.733801 2.596937 0.767694
2.547383 2.604599 0.705994
3.182977 2.604520 0.763296
2.954993 2.605752 0.691430
2.728736 2.590766 0.623319
2.536703 2.589788 0.565418
3.164160 2.589400 0.603975
2.948389 2.598192 0.541745
2.731181 2.590371 0.482342
2.536971 2.587350 0.429653
3.169108 2.593449 0.452963
3.026349 2.665203 0.405851
3.146188 2.572401 0.299793
2.813308 2.476887 0.240552
3.352916 3.412582 0.216241
3.211407 2.624042 0.154170
3.115816 2.740327 0.114454
3.061764 2.897319 0.076154
3.349562 3.408454 0.041454
3.400490 2.776465 0.002988
3.411095 2.998755 -0.040746
3.378887 3.194951 -0.084905
4.320762 4.391360 -0.171866
3.500122 2.855371 -0.162476
3.346801 2.939542 -0.201729
3.321365 3.137707 -0.251213
3.422022 2.788674 -0.320223
3.305912 2.900869 -0.361211
3.349095 3.160255 -0.421577
3.340833 2.718729 -0.471419
3.253012 2.641814 1.280880
3.010801 2.640541 1.176816
2.773895 2.624748 1.081280
2.576753 2.627942 1.004235
3.228110 2.623367 1.097476
2.978840 2.612510 1.002433
2.766149 2.613486 0.923673
2.573106 2.618366 0.853608
3.231175 2.627450 0.933725
2.964244 2.598520 0.842565
2.751731 2.597955 0.770487
2.560870 2.602369 0.707516
3.203158 2.604668 0.766216
2.970380 2.603166 0.693158
2.745282 2.590508 0.625280
2.551572 2.589031 0.566959
3.180532 2.586546 0.605583
2.963799 2.595661 0.543110
2.745612 2.588103 0.483485
2.559542 2.594400 0.432126
3.188617 2.593121 0.454612
2.999322 2.625107 0.401145
2.553361 2.585606 0.297162
3.166450 2.572799 0.300970
2.970349 2.599017 0.253296
2.934476 2.762169 0.220372
3.366882 3.405831 0.216467
3.220218 2.614808 0.154208
3.176141 2.776147 0.116357
3.156582 2.968741 0.078286
3.385314 3.423759 0.041766
3.422193 2.776731 0.003000
3.224491 2.817216 -0.038413
3.457889 3.249617 -0.086639
4.383443 4.427810 -0.173818
3.509643 2.845249 -0.162512
3.265493 2.850428 -0.196300
3.371011 3.165092 -0.254232
3.423585 2.772513 -0.319572
3.315547 2.891368 -0.361293
3.358775 3.149965 -0.421577
3.270777 2.639629 1.284680
3.036246 2.646421 1.183582
2.798056 2.631386 1.087546
2.588869 2.624145 1.005814
3.248932 2.623779 1.101813
2.997072 2.612277 1.005867
2.782654 2.612969 0.926503
2.582497 2.611845 0.854061
3.257435 2.632243 0.938975
2.986949 2.602261 0.846745
2.773980 2.602911 0.774477
2.570914 2.596593 0.708087
3.221075 2.602862 0.768588
2.985037 2.599863 0.694714
2.761132 2.589497 0.627078
2.564373 2.586102 0.568038
3.212304 2.596052 0.610113
2.983704 2.596962 0.545295
2.760054 2.585770 0.484629
2.577284 2.596402 0.433774
3.212018 2.595821 0.456811
2.991597 2.602180 0.399042
2.782236 2.604638 0.347782
2.572521 2.589072 0.298466
3.192950 2.578109 0.302736
2.946681 2.562389 0.250607
2.942937 2.753154 0.220372
3.383655 3.401860 0.216874
3.229780 2.606171 0.154282
3.191435 2.772289 0.116605
3.201466 2.992497 0.079171
3.423307 3.441005 0.042104
3.376982 2.722908 0.002953
3.450573 2.996126 -0.040997
3.504377 3.273116 -0.087552
4.401945 4.419299 -0.174013
3.324577 2.678356 -0.153561
3.371567 2.924842 -0.202137
3.438377 3.208552 -0.258569
3.409541 2.743863 -0.317474
3.342478 2.896848 -0.363257
3.377893 3.148473 -0.422762
3.288558 2.637360 1.288480
3.053779 2.645260 1.187248
2.829312 2.644471 1.096536
2.606422 2.625776 1.009500
3.261490 2.617430 1.103343
3.019728 2.615765 1.010772
2.802736 2.615692 0.930513
2.595993 2.609433 0.855873
3.276908 2.631402 0.942257
3.012662 2.608447 0.851762
2.798435 2.609759 0.779066
2.583026 2.592867 0.709228
3.247445 2.607742 0.772967
3.001191 2.597783 0.696616
2.777724 2.589085 0.629039
2.584856 2.590812 0.570812
3.229510 2.593618 0.611867
2.999899 2.594925 0.546798
2.774507 2.583374 0.485773
2.593659 2.596914 0.435187
3.230042 2.594045 0.458240
2.998061 2.591688 0.398842
2.782194 2.588628 0.346782
2.585385 2.586102 0.299037
3.221069 2.584528 0.304649
2.955284 2.553989 0.250671
2.965995 2.757710 0.221464
3.384183 3.381578 0.216241
4.249707 3.407695 0.202502
3.185549 2.750074 0.116081
3.211364 2.983341 0.079189
3.439507 3.436140 0.042174
3.737275 2.994543 0.003260
3.361331 2.900598 -0.039831
3.523196 3.270512 -0.087771
4.416897 4.407185 -0.174069
3.470864 2.778692 -0.159924
3.387334 2.920356 -0.202544
3.434295 3.185087 -0.257526
3.330703 2.663622 -0.309370
3.354370 2.889182 -0.363585
3.322518 3.077864 -0.414648
3.283377 2.622112 -0.459887
3.307104 2.635603 1.292572
3.073514 2.645894 1.191759
2.837412 2.635778 1.096536
2.621283 2.624593 1.012132
3.298232 2.630320 1.113037
3.035086 2.612813 1.013225
2.832122 2.626907 0.937589
2.610877 2.608341 0.858138
3.299457 2.632900 0.946414
3.031769 2.608760 0.854897
2.817927 2.611819 0.782258
2.602088 2.596024 0.712272
3.270032 2.609419 0.776434
3.015867 2.594344 0.698171
2.799405 2.593290 0.632144
2.605392 2.595422 0.573586
3.257555 2.599742 0.615666
3.012353 2.589584 0.547617
2.793340 2.584955 0.487680
2.607949 2.595249 0.436247
3.249638 2.593423 0.459889
3.010526 2.586368 0.399442
2.790123 2.580080 0.346782
2.596134 2.580968 0.299363
3.239120 2.582717 0.305605
2.990359 2.568317 0.252976
2.986175 2.759440 0.222338
3.261992 3.239542 0.207798
4.316412 3.439480 0.205177
3.190936 2.737684 0.115971
3.214625 2.968049 0.079044
3.296761 3.273386 0.040300
3.747227 2.983686 0.003260
3.380841 2.899385 -0.039956
3.470750 3.202060 -0.086219
3.413294 3.384955 -0.134107
3.757003 2.988900 -0.172685
3.393243 2.907350 -0.202363
3.435974 3.167092 -0.256922
3.755259 3.721611 -0.341246
3.733963 2.967379 -0.345980
3.330661 2.851009 -0.360065
3.221320 2.965805 -0.400881
3.339165 2.644443 1.301926
3.085262 2.639571 1.193168
2.859624 2.640114 1.101985
2.634793 2.621983 1.014238
3.316895 2.628597 1.116609
3.060030 2.617984 1.018866
2.854458 2.631379 0.942307
2.624396 2.605809 0.859950
3.301403 2.617914 0.944664
3.048677 2.607073 0.857405
2.833854 2.610465 0.784453
2.616315 2.594250 0.713984
3.288037 2.607316 0.778807
3.029053 2.589560 0.699381
2.818960 2.595381 0.634759
2.623173 2.597149 0.575743
3.275592 2.597727 0.617566
3.036854 2.594486 0.550621
2.811478 2.585773 0.489459
2.625077 2.596314 0.437777
3.270818 2.593941 0.461758
3.031310 2.588103 0.401145
2.806091 2.578921 0.347782
2.608294 2.577194 0.299852
3.249373 2.574625 0.305826
3.025550 2.582455 0.255282
3.006393 2.761072 0.223211
3.255563 3.213378 0.206759
4.359065 3.451655 0.206700
3.196277 2.725287 0.115861
3.172885 2.911529 0.077798
3.299671 3.256233 0.040213
3.761068 2.975899 0.003265
3.274802 2.791056 -0.038602
3.538775 3.244779 -0.087661
3.445021 3.395518 -0.134944
3.757532 2.970542 -0.172289
3.313157 2.821151 -0.197070
3.444202 3.155187 -0.256812
3.340794 3.290606 -0.302664
3.623291 2.861336 -0.334910
3.283217 2.792989 -0.354008
3.223057 2.949186 -0.399969
3.368305 2.650746 1.310111
3.098462 2.634443 1.195142
2.870547 2.633930 1.103075
2.660659 2.631526 1.021082
3.339377 2.629775 1.121456
3.077649 2.616748 1.022055
2.871832 2.631143 0.945373
2.641391 2.606639 0.862894
3.323981 2.619248 0.948820
3.069329 2.608473 0.860958
2.851246 2.610360 0.787046
2.629855 2.591724 0.715506
3.309921 2.608170 0.782091
3.045240 2.587270 0.701283
2.837827 2.596710 0.637211
2.646622 2.604335 0.579134
3.296755 2.598075 0.620050
3.057637 2.596057 0.552943
2.826719 2.583828 0.490730
2.639404 2.594513 0.438837
3.303742 2.603581 0.465277
3.059720 2.596172 0.403848
2.816931 2.572986 0.348146
2.633255 2.585940 0.301808
3.270577 2.575132 0.307077
3.040308 2.578970 0.255858
3.027387 2.763279 0.224140
3.230463 3.169096 0.204547
4.393980 3.457422 0.207852
3.206149 2.716761 0.115916
3.189928 2.909192 0.077997
3.322496 3.258698 0.040370
3.775683 2.968673 0.003269
3.420696 2.897329 -0.040216
3.561277 3.245355 -0.087971
3.884583 3.805339 -0.151704
3.634603 2.855284 -0.166250
3.336285 2.823234 -0.197929
3.454604 3.145277 -0.256867
3.481372 3.408092 -0.314452
3.628914 2.847743 -0.334621
3.300903 2.790625 -0.354990
3.225459 2.933254 -0.399148
3.401281 2.659841 1.319757
3.115324 2.632356 1.198525
2.885012 2.630946 1.105527
2.671472 2.626056 1.022135
3.364943 2.633222 1.127323
3.109359 2.627315 1.029904
2.885639 2.627554 0.947260
2.657720 2.606707 0.865612
3.351976 2.624679 0.954508
3.085535 2.605985 0.863258
2.871562 2.612811 0.790438
2.644808 2.590513 0.717409
3.324875 2.603458 0.783733
3.064452 2.587446 0.703876
2.856728 2.597948 0.639662
2.660957 2.602420 0.580520
3.314836 2.595877 0.621950
3.072402 2.592413 0.554172
2.844911 2.584481 0.492510
2.655165 2.594037 0.440132
3.317192 2.597722 0.466046
3.076038 2.593828 0.404950
2.841770 2.579727 0.350236
2.648309 2.584811 0.302623
3.281604 2.567544 0.307371
3.057362 2.577349 0.256627
3.042507 2.760017 0.224631
3.236594 3.155683 0.204321
4.410077 3.448234 0.208112
3.203764 2.697897 0.115530
3.181059 2.883276 0.077563
3.325317 3.241509 0.040283
3.810777 2.977392 0.003292
3.402028 2.863638 -0.039893
3.607529 3.267302 -0.088866
3.606170 3.510990 -0.140410
3.642558 2.843505 -0.166214
3.351812 2.818772 -0.198336
