3.656731 0.044141 -0.852288
3.444123 0.169506 -0.839455
3.301233 0.286300 -0.842292
3.204562 -0.083657 -0.844397
3.064248 0.034582 -0.838164
2.950575 0.144441 -0.839215
2.888315 0.250998 -0.856251
15.758712 0.189186 -0.713721
13.650440 0.659454 -0.751388
11.844880 1.002931 -0.767257
10.835153 -0.270139 -0.786232
9.764474 0.112622 -0.801981
8.872748 0.423521 -0.813249
8.124346 0.685050 -0.826876
7.479866 -0.191581 -0.818919
6.928742 0.075924 -0.824167
6.536744 0.310073 -0.841685
6.095150 0.512018 -0.847119
5.697013 -0.148802 -0.836366
5.436673 0.056443 -0.849948
5.030525 0.235985 -0.836152
4.715478 0.395623 -0.834132
4.507229 -0.120875 -0.832166
4.315087 0.042087 -0.838495
4.077326 0.188560 -0.833915
3.896215 0.327093 -0.839357
3.731611 -0.104376 -0.833551
3.660745 0.032957 -0.853196
3.435892 0.158536 -0.837326
3.316583 0.277383 -0.845987
3.197524 -0.093291 -0.842614
3.036368 0.024951 -0.830513
2.926021 0.134242 -0.832110
2.880470 0.241415 -0.853702
15.797177 0.141177 -0.715440
13.673346 0.618519 -0.752540
11.889675 0.969995 -0.769962
10.834274 -0.303380 -0.786232
9.763777 0.082656 -0.801899
8.896887 0.397320 -0.815346
8.120461 0.659638 -0.826270
7.471294 -0.214300 -0.818048
6.922984 0.054620 -0.823458
6.512894 0.288918 -0.838495
6.107553 0.494195 -0.848628
5.681694 -0.165847 -0.834188
5.439784 0.039784 -0.850411
5.037139 0.220810 -0.837135
4.728449 0.382106 -0.836215
4.514701 -0.134937 -0.833618
4.323048 0.028901 -0.840021
4.087674 0.176473 -0.835917
3.895251 0.314980 -0.838937
3.755661 -0.116581 -0.838999
3.664724 0.021749 -0.854104
3.438303 0.148077 -0.837800
3.326112 0.267907 -0.848205
3.200123 -0.103194 -0.843378
3.132886 0.016132 -0.856896
2.943718 0.126005 -0.837029
2.879285 0.232422 -0.853135
15.776558 0.092588 -0.714490
13.674181 0.576525 -0.752486
11.903539 0.934373 -0.770670
10.831298 -0.336555 -0.786088
9.751028 0.052631 -0.800835
8.896074 0.369940 -0.815163
8.124430 0.634877 -0.826472
7.481531 -0.237567 -0.819245
6.938014 0.033452 -0.825230
6.503839 0.268526 -0.837220
6.103115 0.474994 -0.847805
5.674237 -0.183054 -0.833171
5.428025 0.023045 -0.848558
5.031878 0.205114 -0.836152
4.739418 0.368360 -0.837951
4.532940 -0.149403 -0.837067
4.346676 0.015723 -0.844599
4.113649 0.164952 -0.841122
3.899123 0.303256 -0.839566
3.759187 -0.128236 -0.839871
3.645296 0.010450 -0.849565
3.456216 0.138227 -0.842057
3.341413 0.258824 -0.851900
3.223951 -0.113865 -0.849746
3.138708 0.006533 -0.858479
2.944091 0.116973 -0.837029
2.877116 0.223365 -0.852286
15.782762 0.044203 -0.714762
13.666906 0.534219 -0.751991
11.911325 0.898224 -0.770992
10.706612 -0.365564 -0.777116
9.765096 0.022748 -0.801981
8.852388 0.340921 -0.811061
8.142213 0.611140 -0.828086
7.472819 -0.260242 -0.818375
6.933120 0.012157 -0.824639
6.486792 0.247890 -0.834924
6.105531 0.456341 -0.847942
5.675626 -0.200531 -0.833462
5.419178 0.006381 -0.847168
5.023612 0.189341 -0.834678
4.733651 0.353305 -0.836736
4.531477 -0.163274 -0.836885
4.282897 0.002352 -0.832201
4.106303 0.152040 -0.839520
3.910761 0.292093 -0.841875
3.769504 -0.140167 -0.842268
3.637519 -0.000732 -0.847749
3.464392 0.127910 -0.843949
3.350890 0.249218 -0.854117
3.242913 -0.124497 -0.854841
3.094343 -0.003053 -0.846343
3.000190 0.109984 -0.852879
2.871093 0.214038 -0.850303
15.922679 -0.004255 -0.721095
13.661496 0.492036 -0.751607
11.917010 0.861892 -0.771186
10.709426 -0.398558 -0.777406
9.769107 -0.007214 -0.802309
8.886234 0.314924 -0.814069
8.164888 0.587657 -0.830205
7.471985 -0.283168 -0.818375
6.933124 -0.009113 -0.824639
6.476619 0.227604 -0.833520
6.121722 0.438670 -0.850000
5.704644 -0.219082 -0.837818
5.421148 -0.010248 -0.847477
5.020226 0.173791 -0.834023
4.729801 0.338430 -0.835868
4.525059 -0.176945 -0.835796
4.341782 -0.010936 -0.843645
4.115563 0.139741 -0.841322
3.909688 0.279954 -0.841455
3.763206 -0.151495 -0.840960
3.626787 -0.011857 -0.845252
3.470595 0.117478 -0.845369
3.313936 0.236249 -0.844509
3.202902 -0.132803 -0.844397
3.109752 -0.012609 -0.850564
2.967826 0.099681 -0.843587
2.868867 0.205023 -0.849453
15.836680 -0.052819 -0.717205
13.621027 0.448740 -0.749301
11.927563 0.825879 -0.771701
10.682242 -0.430368 -0.775524
9.778009 -0.037220 -0.803045
8.872228 0.287177 -0.812702
8.186504 0.563972 -0.832223
7.472074 -0.306131 -0.818483
6.925120 -0.030349 -0.823695
6.476296 0.207702 -0.833393
6.131933 0.420496 -0.851234
5.706911 -0.236705 -0.838253
5.413187 -0.026841 -0.846241
5.015805 0.158233 -0.833204
4.731799 0.323984 -0.836041
4.515652 -0.190454 -0.834163
4.342710 -0.024262 -0.843836
4.117931 0.127174 -0.841722
3.903700 0.267490 -0.839986
3.783199 -0.163927 -0.845537
3.630629 -0.023008 -0.846160
3.497160 0.107636 -0.851755
3.329150 0.227070 -0.848205
3.225665 -0.143661 -0.850510
3.107770 -0.022136 -0.850036
2.929659 0.089402 -0.832657
2.883834 0.197202 -0.853702
15.908369 -0.101865 -0.720462
13.592398 0.406055 -0.747654
11.930041 0.789282 -0.771701
10.659947 -0.462231 -0.774005
9.777848 -0.067218 -0.803045
8.868090 0.259810 -0.812246
8.198123 0.539507 -0.833232
7.479045 -0.329403 -0.819354
6.938896 -0.051698 -0.825348
6.479877 0.187918 -0.833776
6.114414 0.400452 -0.848628
5.700227 -0.253949 -0.837382
5.421971 -0.043519 -0.847631
5.018239 0.142900 -0.833532
4.729823 0.309273 -0.835520
4.509152 -0.204040 -0.833074
4.322001 -0.037406 -0.839830
4.120261 0.114595 -0.842122
3.892795 0.254746 -0.837468
3.779754 -0.175398 -0.844883
3.626646 -0.034110 -0.845252
3.445998 0.095480 -0.839219
3.309521 0.215533 -0.843031
3.185606 -0.151671 -0.840067
3.099971 -0.031591 -0.847926
2.973190 0.081601 -0.844954
2.901652 0.189479 -0.858800
15.938947 -0.150964 -0.721864
13.635502 0.365475 -0.749960
11.936389 0.752928 -0.771959
10.642538 -0.494193 -0.772847
9.781583 -0.097255 -0.803373
8.867851 0.232576 -0.812155
8.207683 0.514851 -0.834040
7.477006 -0.352300 -0.819245
6.966507 -0.073279 -0.828655
6.523057 0.169143 -0.839261
6.131432 0.382678 -0.850823
5.676691 -0.270353 -0.834043
5.409957 -0.060022 -0.845778
5.014709 0.127404 -0.832876
4.737630 0.295190 -0.836736
4.502612 -0.217588 -0.831985
4.296345 -0.050367 -0.834871
4.116675 0.101856 -0.841322
3.902341 0.243350 -0.839357
3.767500 -0.186414 -0.842268
3.623603 -0.045200 -0.844571
3.478328 0.085698 -0.847024
3.319840 0.205978 -0.845495
3.203476 -0.162374 -0.844907
3.076712 -0.040795 -0.841594
2.986889 0.072807 -0.848780
2.907963 0.180933 -0.860500
15.969375 -0.200252 -0.723267
13.617593 0.323190 -0.748917
11.959562 0.717560 -0.773311
10.641968 -0.526891 -0.772920
9.776255 -0.127200 -0.802964
8.886443 0.205784 -0.813796
8.180424 0.487950 -0.831113
7.473904 -0.375138 -0.819027
6.962277 -0.094597 -0.828183
6.505697 0.148721 -0.836965
6.125656 0.363455 -0.849862
5.693621 -0.288669 -0.836656
5.388013 -0.076312 -0.842380
5.015077 0.112018 -0.832876
4.749327 0.281294 -0.838645
4.504869 -0.231552 -0.832529
4.296170 -0.063547 -0.834871
4.105214 0.088971 -0.838920
3.905997 0.231550 -0.839986
3.767886 -0.198023 -0.842486
3.624421 -0.056332 -0.844798
3.471775 0.074879 -0.845369
3.317554 0.195621 -0.844756
3.201031 -0.172097 -0.844397
3.104541 -0.050691 -0.849245
2.985175 0.063602 -0.848233
2.908504 0.172011 -0.860500
15.939720 -0.248792 -0.721955
13.622513 0.281493 -0.749137
11.945766 0.679957 -0.772281
10.633329 -0.559171 -0.772413
9.772830 -0.157144 -0.802718
8.904953 0.178879 -0.815437
8.166982 0.462008 -0.829600
7.467755 -0.397801 -0.818483
6.964933 -0.116007 -0.828537
6.484306 0.128330 -0.834158
6.121797 0.344382 -0.849177
5.703576 -0.306720 -0.838253
5.382815 -0.092756 -0.841607
5.010465 0.096537 -0.832058
4.753118 0.266887 -0.839166
4.515921 -0.246014 -0.834707
4.301844 -0.076833 -0.836015
4.123100 0.076704 -0.842523
3.918403 0.220224 -0.842505
3.779928 -0.210286 -0.845319
3.629100 -0.067542 -0.845933
3.437016 0.063581 -0.836853
3.299752 0.184414 -0.840075
3.214970 -0.182740 -0.848218
3.111122 -0.060346 -0.851092
2.986318 0.054461 -0.848506
2.894655 0.162281 -0.856251
15.969843 -0.298272 -0.723357
13.661250 0.240366 -0.751223
11.940821 0.642929 -0.771830
10.636543 -0.592068 -0.772775
9.763333 -0.186954 -0.801981
8.921392 0.151830 -0.816896
8.154452 0.436205 -0.828187
7.463522 -0.420543 -0.818157
6.959580 -0.137276 -0.827946
6.465828 0.108120 -0.831734
6.067432 0.322653 -0.841494
5.697669 -0.323936 -0.837527
5.376578 -0.109150 -0.840681
5.010738 0.081164 -0.832058
4.751947 0.252199 -0.838819
4.514163 -0.259811 -0.834526
4.302569 -0.090051 -0.836206
4.099804 0.063689 -0.837719
3.926871 0.208616 -0.844184
3.781214 -0.221997 -0.845755
3.608428 -0.078232 -0.841167
3.476055 0.053635 -0.846315
3.300303 0.174290 -0.840075
3.205707 -0.192082 -0.845925
3.090671 -0.069436 -0.845551
2.995128 0.045430 -0.850966
2.889393 0.153095 -0.854552
15.927906 -0.346375 -0.721503
13.654934 0.198351 -0.750839
11.941741 0.606242 -0.771765
10.629698 -0.624405 -0.772413
9.769689 -0.217062 -0.802554
8.902897 0.124195 -0.815163
8.133893 0.410084 -0.825968
7.460212 -0.443320 -0.817939
6.964090 -0.158740 -0.828537
6.473071 0.088378 -0.832627
6.090159 0.305127 -0.844512
5.683810 -0.340645 -0.835640
5.372267 -0.125552 -0.840063
5.008004 0.065752 -0.831566
4.744830 0.237226 -0.837430
4.528068 -0.274551 -0.837248
4.305217 -0.103321 -0.836778
4.103899 0.051160 -0.838519
3.929446 0.196666 -0.844604
3.777593 -0.233415 -0.845101
3.651010 -0.090363 -0.851154
3.489805 0.043139 -0.849626
3.331797 0.165705 -0.847958
3.192556 -0.201126 -0.842614
3.098157 -0.079114 -0.847662
2.976016 0.036008 -0.845500
2.884102 0.143943 -0.852852
15.924769 -0.395190 -0.721412
13.666461 0.156583 -0.751442
11.945538 0.569697 -0.771894
10.623750 -0.656768 -0.772124
9.771965 -0.247109 -0.802800
8.922155 0.097086 -0.816896
8.136106 0.385174 -0.826068
7.453856 -0.465896 -0.817395
6.975483 -0.180413 -0.829954
6.492155 0.068718 -0.835051
6.049509 0.284487 -0.838750
5.684712 -0.358206 -0.835930
5.364943 -0.141850 -0.838982
5.019033 0.050497 -0.833368
4.745535 0.222668 -0.837430
4.549777 -0.289880 -0.841423
4.310767 -0.116688 -0.837923
4.116773 0.038689 -0.841122
3.925147 0.184380 -0.843554
3.765172 -0.244246 -0.842486
3.581595 -0.099640 -0.835038
3.491864 0.032450 -0.850099
3.345844 0.156114 -0.851407
3.223766 -0.213024 -0.851020
3.118148 -0.089198 -0.853202
2.980922 0.026921 -0.846867
2.892194 0.135453 -0.855118
15.967420 -0.445270 -0.723403
13.671870 0.114696 -0.751717
11.952214 0.533269 -0.772216
10.621685 -0.689358 -0.772124
9.769169 -0.277032 -0.802636
8.906478 0.069588 -0.815437
8.124328 0.359639 -0.824757
7.449416 -0.488567 -0.817069
6.974896 -0.201813 -0.829954
6.508204 0.048919 -0.837092
6.067176 0.266666 -0.841083
5.658906 -0.374013 -0.832300
5.364483 -0.158309 -0.838982
5.008313 0.035023 -0.831566
4.761938 0.208798 -0.840208
4.549848 -0.303903 -0.841604
4.309408 -0.129883 -0.837732
4.126670 0.026120 -0.843123
3.921787 0.172165 -0.842715
3.753694 -0.255068 -0.840089
3.611449 -0.111560 -0.842075
3.491947 0.021737 -0.850099
3.318227 0.144625 -0.844263
3.201874 -0.221445 -0.845416
3.133285 -0.099253 -0.857423
3.002152 0.017902 -0.852879
2.893554 0.126622 -0.855401
15.916054 -0.492709 -0.721141
13.634214 0.072549 -0.749631
11.956786 0.496722 -0.772409
10.612555 -0.721468 -0.771617
9.761300 -0.306783 -0.802063
8.891713 0.042193 -0.814069
8.110483 0.334098 -0.823243
7.451849 -0.511691 -0.817504
6.956379 -0.222639 -0.827828
6.524193 0.029022 -0.839133
6.069946 0.248132 -0.841357
5.652796 -0.391032 -0.831574
5.352122 -0.174380 -0.837128
5.008397 0.019657 -0.831566
4.729101 0.192824 -0.834305
4.529274 -0.316489 -0.837974
4.306046 -0.143006 -0.837160
4.120852 0.013441 -0.841922
3.897874 0.159136 -0.837468
3.758735 -0.266998 -0.841396
3.593570 -0.122044 -0.837989
3.501714 0.011054 -0.852465
3.335118 0.135111 -0.848451
3.189605 -0.230431 -0.842359
3.080910 -0.107056 -0.843177
2.992574 0.008664 -0.850146
2.891054 0.117627 -0.854552
15.923454 -0.541843 -0.721548
13.604419 0.030652 -0.747984
11.974208 0.460650 -0.773440
10.657051 -0.757346 -0.775018
9.753340 -0.336488 -0.801490
8.884829 0.014901 -0.813431
8.102522 0.308873 -0.822335
7.452227 -0.534693 -0.817722
6.976504 -0.244711 -0.830309
6.514333 0.008993 -0.837858
6.070678 0.229508 -0.841357
5.658478 -0.408871 -0.832591
5.338726 -0.190342 -0.835121
5.005474 0.004289 -0.831075
4.750336 0.179093 -0.837951
4.522397 -0.329954 -0.836885
4.319321 -0.156715 -0.839830
4.128712 0.000799 -0.843524
3.901275 0.147287 -0.838097
3.779310 -0.280115 -0.846190
3.613616 -0.133826 -0.842755
3.513390 0.000312 -0.855303
3.326800 0.124552 -0.846234
3.185990 -0.239998 -0.841595
3.117195 -0.117893 -0.853202
2.981043 -0.000515 -0.846867
2.897152 0.108973 -0.856251
15.991597 -0.593285 -0.724715
13.611438 -0.011091 -0.748368
11.970579 0.423735 -0.773118
10.669596 -0.791144 -0.776103
9.666612 -0.363191 -0.794451
8.887821 -0.012361 -0.813705
8.088517 0.283491 -0.820822
7.444604 -0.557108 -0.817069
6.988620 -0.266605 -0.831844
6.502428 -0.010973 -0.836327
6.064424 0.210642 -0.840397
5.645357 -0.425337 -0.830848
5.345027 -0.206988 -0.836202
4.998558 -0.011052 -0.829928
4.745942 0.164348 -0.837083
4.516461 -0.343454 -0.835978
4.334514 -0.170583 -0.842882
4.120857 -0.011845 -0.841922
3.918320 0.135894 -0.841665
3.782325 -0.292009 -0.847062
3.612216 -0.144872 -0.842528
3.481312 -0.010371 -0.847497
3.331041 0.114478 -0.847219
3.216089 -0.252190 -0.849746
3.114891 -0.127377 -0.852674
2.963713 -0.009605 -0.841948
2.891722 0.099885 -0.854552
15.964748 -0.641341 -0.723584
13.613337 -0.052858 -0.748478
11.959853 0.386621 -0.772345
10.678057 -0.824719 -0.776899
9.655493 -0.392441 -0.793632
8.882762 -0.039606 -0.813249
8.057529 0.257657 -0.817593
7.489440 -0.583575 -0.822183
6.986777 -0.288004 -0.831726
6.491454 -0.030870 -0.834924
6.062072 0.191941 -0.839985
5.645999 -0.442810 -0.831139
5.332521 -0.222890 -0.834348
5.002447 -0.026409 -0.830583
4.717879 0.148886 -0.832049
4.514405 -0.357231 -0.835796
4.322201 -0.183381 -0.840593
4.122761 -0.024499 -0.842323
3.916764 0.123810 -0.841246
3.759036 -0.301816 -0.842050
3.617592 -0.156206 -0.843890
3.477377 -0.021028 -0.846551
3.323627 0.104016 -0.845248
3.208553 -0.261506 -0.847963
3.092322 -0.135958 -0.846607
3.012727 -0.019007 -0.855885
2.892014 0.091013 -0.854552
15.911804 -0.688116 -0.721276
13.595138 -0.094498 -0.747490
11.947018 0.349518 -0.771443
10.711267 -0.860350 -0.779504
9.641300 -0.421496 -0.792568
8.874632 -0.066798 -0.812519
8.038392 0.232360 -0.815575
7.494550 -0.607111 -0.822944
6.963044 -0.308427 -0.829009
6.501247 -0.050863 -0.836199
6.055701 0.173144 -0.839025
5.639683 -0.459727 -0.830413
5.329839 -0.239160 -0.834039
5.017139 -0.041879 -0.833040
4.735048 0.134888 -0.835000
4.478985 -0.368259 -0.829444
4.339270 -0.197444 -0.844027
4.126585 -0.037183 -0.843123
3.912239 0.111653 -0.840196
3.742531 -0.312049 -0.838563
3.614177 -0.167169 -0.843209
3.469523 -0.031626 -0.844659
3.297773 0.093080 -0.838597
3.220262 -0.272408 -0.851275
3.098635 -0.145762 -0.848453
2.999188 -0.028124 -0.852059
2.884611 0.081922 -0.852286
15.924586 -0.737623 -0.721955
13.595783 -0.136217 -0.747545
11.938058 0.312603 -0.770799
10.644966 -0.887902 -0.774873
9.631001 -0.450654 -0.791832
8.886335 -0.094152 -0.813614
8.020170 0.207210 -0.813658
7.479774 -0.629019 -0.821530
6.963057 -0.329835 -0.829128
6.503044 -0.070830 -0.836454
6.054223 0.154514 -0.838750
5.636274 -0.476861 -0.830122
5.350791 -0.256552 -0.837437
5.046580 -0.057609 -0.837954
4.737409 0.120410 -0.835347
4.511149 -0.384841 -0.835615
4.334721 -0.210565 -0.843264
4.122533 -0.049795 -0.842323
3.901812 0.099376 -0.837887
3.750308 -0.324286 -0.840524
3.619484 -0.178544 -0.844571
3.433463 -0.041832 -0.835907
3.300950 0.083035 -0.839336
3.222301 -0.282540 -0.852039
3.136707 -0.157199 -0.859006
3.001973 -0.037361 -0.852879
2.881972 0.072999 -0.851436
15.951183 -0.787905 -0.723267
13.599295 -0.177980 -0.747764
11.923996 0.275630 -0.769833
10.656104 -0.921759 -0.775886
9.620615 -0.479753 -0.791095
8.906915 -0.121700 -0.815528
8.024746 0.182694 -0.814061
7.473848 -0.651618 -0.821095
6.957053 -0.350945 -0.828537
6.496845 -0.090698 -0.835689
6.064572 0.136162 -0.840122
5.633800 -0.494064 -0.829977
5.361819 -0.273571 -0.839291
5.031584 -0.072877 -0.835497
4.740710 0.105942 -0.835868
4.494273 -0.397294 -0.832711
4.340917 -0.224217 -0.844599
4.118442 -0.062383 -0.841522
3.917738 0.087756 -0.841246
3.760960 -0.336835 -0.843139
3.605303 -0.188934 -0.841394
3.420688 -0.052173 -0.832832
3.323475 0.073400 -0.845002
3.247422 -0.294785 -0.858916
3.109241 -0.165387 -0.851619
2.986455 -0.046332 -0.848506
2.876430 0.064029 -0.849736
15.922753 -0.835478 -0.722091
13.602678 -0.219766 -0.747984
11.927779 0.239106 -0.770026
10.690975 -0.957829 -0.778635
9.612131 -0.508897 -0.790522
8.902517 -0.148958 -0.815163
8.029248 0.158152 -0.814465
7.478744 -0.675170 -0.821856
6.960901 -0.372553 -0.829128
6.473727 -0.110241 -0.832755
6.075855 0.117766 -0.841631
5.633243 -0.511435 -0.830122
5.363914 -0.290179 -0.839754
5.033309 -0.088348 -0.835825
4.747905 0.091530 -0.837083
4.472468 -0.409198 -0.828899
4.350991 -0.238124 -0.846697
4.120191 -0.075054 -0.841922
3.949270 0.076341 -0.847962
3.768655 -0.349183 -0.845101
3.621237 -0.200911 -0.845252
3.483657 -0.063824 -0.848207
3.359537 0.063885 -0.854117
3.261907 -0.306193 -0.862992
3.075012 -0.173029 -0.842385
2.968987 -0.055172 -0.843587
2.879489 0.055259 -0.850586
15.947047 -0.885820 -0.723312
13.633885 -0.262111 -0.749741
11.932447 0.202579 -0.770284
10.716786 -0.993294 -0.780734
9.601569 -0.537883 -0.789785
8.905005 -0.176329 -0.815437
8.042627 0.133733 -0.815777
7.495443 -0.699867 -0.823923
6.963692 -0.394132 -0.829600
6.474351 -0.130121 -0.832883
6.072226 0.099061 -0.841083
5.623766 -0.527976 -0.828960
5.362999 -0.306634 -0.839754
5.020193 -0.103525 -0.833695
4.758010 0.077123 -0.838819
4.496646 -0.425325 -0.833618
4.349260 -0.251415 -0.846506
4.117002 -0.087632 -0.841322
3.929934 0.063906 -0.843764
3.752993 -0.359348 -0.841832
3.613798 -0.211622 -0.843663
3.503844 -0.074948 -0.853174
3.348089 0.053392 -0.851161
3.231114 -0.313305 -0.855095
3.114907 -0.184862 -0.853466
2.977460 -0.064468 -0.846047
2.883481 0.046487 -0.851719
15.932287 -0.934039 -0.722769
13.642999 -0.304161 -0.750290
11.909065 0.165637 -0.768738
10.661068 -1.021128 -0.776899
9.595893 -0.567102 -0.789458
8.898449 -0.203512 -0.814890
8.048968 0.109138 -0.816382
7.510082 -0.724482 -0.825773
6.982274 -0.416677 -0.831962
6.552255 -0.151799 -0.842960
6.066559 0.080352 -0.840259
5.632952 -0.546277 -0.830558
5.353157 -0.322551 -0.838364
5.007031 -0.118623 -0.831566
4.755270 0.062486 -0.838298
4.510001 -0.440553 -0.836341
4.322992 -0.263206 -0.841547
4.110837 -0.100119 -0.840121
3.955530 0.052184 -0.849221
3.749931 -0.370668 -0.841396
3.628685 -0.223666 -0.847295
3.491942 -0.085412 -0.850336
3.359866 0.043270 -0.854117
3.226289 -0.322832 -0.854076
3.082556 -0.192434 -0.844760
2.967631 -0.073365 -0.843314
2.887446 0.037690 -0.852852
15.956267 -0.984575 -0.723991
13.644997 -0.346091 -0.750454
11.933466 0.129359 -0.770284
10.669795 -1.055008 -0.777767
9.585156 -0.595983 -0.788721
8.884840 -0.230476 -0.813705
8.066177 0.084622 -0.818097
7.514748 -0.748209 -0.826534
7.008712 -0.439838 -0.835269
6.567622 -0.172316 -0.845001
6.063805 0.061710 -0.839848
5.645033 -0.564936 -0.832591
5.353128 -0.339036 -0.838518
5.005657 -0.133957 -0.831402
4.751500 0.047857 -0.837604
4.532111 -0.456754 -0.840697
4.329022 -0.276906 -0.842882
4.120304 -0.112999 -0.842122
3.915587 0.039643 -0.840616
3.754601 -0.382765 -0.842704
3.598826 -0.232911 -0.840486
3.455727 -0.095135 -0.841584
3.312496 0.032496 -0.842046
3.233941 -0.333621 -0.856369
3.110827 -0.203782 -0.852674
2.969315 -0.082522 -0.843861
2.886589 0.028822 -0.852569
15.951177 -1.033395 -0.723900
13.644869 -0.387980 -0.750509
11.929815 0.092716 -0.770026
10.657579 -1.086827 -0.777116
9.584277 -0.625452 -0.788803
8.867170 -0.257242 -0.812155
8.071374 0.059911 -0.818602
7.519339 -0.771971 -0.827296
7.016248 -0.461925 -0.836332
6.572019 -0.192610 -0.845639
6.061985 0.043092 -0.839574
5.642289 -0.582150 -0.832445
5.351077 -0.355392 -0.838364
5.014097 -0.149579 -0.832876
4.743746 0.033224 -0.836215
4.510147 -0.468522 -0.836885
4.351659 -0.291762 -0.847460
4.116021 -0.125520 -0.841322
3.912756 0.027609 -0.839986
3.753409 -0.394282 -0.842704
3.600037 -0.244083 -0.840940
3.450563 -0.105588 -0.840401
3.321302 0.022392 -0.844263
3.213670 -0.341498 -0.851275
3.114999 -0.213655 -0.853994
2.964241 -0.091483 -0.842494
2.900090 0.020059 -0.856534
15.954910 -1.082801 -0.724217
13.642616 -0.429809 -0.750454
11.927050 0.056101 -0.769833
10.651218 -1.119206 -0.776899
9.591262 -0.655464 -0.789540
8.860367 -0.284253 -0.811608
8.053612 0.035070 -0.816786
7.518912 -0.795245 -0.827514
7.015788 -0.483517 -0.836450
6.572388 -0.212804 -0.845767
6.061098 0.024490 -0.839436
5.635557 -0.598935 -0.831719
5.351933 -0.371944 -0.838673
5.022488 -0.165253 -0.834351
4.749735 0.018694 -0.837256
4.481310 -0.479428 -0.831803
4.341930 -0.304493 -0.845743
4.132263 -0.138706 -0.844725
3.908912 0.015589 -0.839147
3.743449 -0.404851 -0.840742
3.628416 -0.257192 -0.847749
3.454107 -0.116305 -0.841348
3.336862 0.012259 -0.848205
3.206840 -0.350725 -0.849746
3.099897 -0.222176 -0.850036
2.967792 -0.100708 -0.843587
2.879039 0.011080 -0.850303
15.949519 -1.131603 -0.724126
13.645225 -0.471800 -0.750674
11.917186 0.019493 -0.769189
10.641784 -1.151235 -0.776465
9.590200 -0.684958 -0.789622
8.856468 -0.311330 -0.811334
8.060646 0.010371 -0.817492
7.472955 -0.813575 -0.822727
7.008329 -0.504611 -0.835742
6.573687 -0.233037 -0.846022
6.055201 0.005889 -0.838613
5.633693 -0.616222 -0.831719
5.318248 -0.386002 -0.833576
5.021957 -0.180661 -0.834351
4.754694 0.004126 -0.838124
4.468088 -0.491883 -0.829625
4.355661 -0.318888 -0.848604
4.104404 -0.150378 -0.839120
3.911875 0.003599 -0.839776
3.751889 -0.417413 -0.842922
3.648977 -0.269903 -0.852742
3.455676 -0.126972 -0.841821
3.344637 0.002027 -0.850176
3.216319 -0.361750 -0.852548
3.085734 -0.230679 -0.846343
2.953050 -0.109279 -0.839488
2.870428 0.002240 -0.847754
15.945972 -1.180530 -0.724126
13.639723 -0.513510 -0.750454
11.921182 -0.017074 -0.769446
10.641176 -1.184209 -0.776682
9.601968 -0.715414 -0.790768
8.852485 -0.338386 -0.811061
8.060639 -0.014359 -0.817492
7.460545 -0.835392 -0.821639
7.005758 -0.526035 -0.835624
6.573932 -0.253242 -0.846150
6.050238 -0.012678 -0.837927
5.634725 -0.633834 -0.832155
5.333787 -0.403583 -0.836202
5.014480 -0.195798 -0.833204
4.758624 -0.010470 -0.838819
4.486102 -0.507801 -0.833255
4.344874 -0.331502 -0.846697
4.108818 -0.163164 -0.840121
3.923600 -0.008427 -0.842295
3.752530 -0.429143 -0.843357
3.664639 -0.282369 -0.856601
3.466920 -0.138038 -0.844659
3.333967 -0.008208 -0.847466
3.213273 -0.371394 -0.852039
3.105207 -0.241717 -0.851883
2.988264 -0.119763 -0.849599
2.866585 -0.006557 -0.846621
15.933311 -1.228755 -0.723719
13.629104 -0.554988 -0.749960
11.918079 -0.053634 -0.769253
10.624611 -1.215376 -0.775741
9.606684 -0.745408 -0.791341
8.894190 -0.367310 -0.814981
8.057572 -0.039074 -0.817189
7.480661 -0.860891 -0.824141
7.010051 -0.547991 -0.836332
6.572133 -0.273368 -0.846022
6.057104 -0.031276 -0.838888
5.613098 -0.648846 -0.829251
5.310855 -0.418239 -0.832804
5.007941 -0.210932 -0.832221
4.761524 -0.025085 -0.839340
4.486476 -0.521789 -0.833618
4.306651 -0.341879 -0.839449
4.105361 -0.175643 -0.839520
3.924533 -0.020470 -0.842505
3.757012 -0.441337 -0.844665
3.652106 -0.292677 -0.853877
3.446095 -0.147799 -0.839692
3.354278 -0.018549 -0.852639
3.198674 -0.379655 -0.848473
3.072724 -0.248674 -0.843177
2.951362 -0.127355 -0.839215
2.875183 -0.015398 -0.849170
15.949382 -1.279229 -0.724624
13.669233 -0.598634 -0.752266
11.899897 -0.090062 -0.768094
10.617861 -1.247617 -0.775524
9.601371 -0.774637 -0.791095
8.861186 -0.393183 -0.812064
8.060399 -0.063818 -0.817492
7.481933 -0.884304 -0.824576
7.019224 -0.570379 -0.837631
6.565319 -0.293264 -0.845257
6.080752 -0.050054 -0.842180
5.592413 -0.663848 -0.826492
5.306593 -0.434288 -0.832340
5.013184 -0.226562 -0.833204
4.752561 -0.039619 -0.837777
4.497548 -0.537066 -0.835978
4.299712 -0.354606 -0.838304
4.097952 -0.187924 -0.838119
3.923474 -0.032502 -0.842295
3.750796 -0.452277 -0.843575
3.647309 -0.303557 -0.852969
3.459214 -0.158995 -0.843003
3.324162 -0.028582 -0.845002
3.199414 -0.389700 -0.848982
3.123850 -0.262461 -0.857423
2.941349 -0.135964 -0.836482
2.873204 -0.024203 -0.848603
15.958323 -1.329233 -0.725212
13.686283 -0.641456 -0.753309
11.908546 -0.126666 -0.768674
10.603091 -1.278873 -0.774729
9.597956 -0.804007 -0.791013
8.852975 -0.420036 -0.811425
8.063150 -0.088579 -0.817795
7.458461 -0.904740 -0.822291
7.021399 -0.592245 -0.838104
6.562407 -0.313310 -0.845001
6.085522 -0.068765 -0.842866
5.622760 -0.684950 -0.831284
5.287515 -0.449062 -0.829560
5.022319 -0.242417 -0.834842
4.757341 -0.054255 -0.838645
4.497831 -0.551101 -0.836341
4.295670 -0.367544 -0.837732
4.095399 -0.200399 -0.837719
3.923356 -0.044539 -0.842295
3.764888 -0.465699 -0.847062
3.613370 -0.311897 -0.845252
3.459681 -0.169655 -0.843240
3.323090 -0.038769 -0.844756
3.194365 -0.399035 -0.847963
3.114382 -0.271290 -0.855049
2.950525 -0.145461 -0.839215
2.858732 -0.032852 -0.844355
15.917347 -1.375005 -0.723538
13.693226 -0.683890 -0.753803
11.958990 -0.163898 -0.771959
10.588230 -1.310049 -0.773933
9.594451 -0.833363 -0.790931
8.835731 -0.446391 -0.809967
8.053887 -0.113190 -0.816887
7.458610 -0.927986 -0.822618
7.025484 -0.614303 -0.838813
6.562405 -0.333492 -0.845129
6.099149 -0.087635 -0.844787
5.604924 -0.700235 -0.828960
5.298907 -0.466408 -0.831568
5.034358 -0.258482 -0.836971
4.753213 -0.068794 -0.837951
4.499046 -0.565266 -0.836885
4.294522 -0.380721 -0.837732
4.094765 -0.212963 -0.837719
3.915380 -0.056462 -0.840616
3.758600 -0.476634 -0.845972
3.600756 -0.321941 -0.842528
3.459144 -0.180268 -0.843240
3.329739 -0.049063 -0.846480
3.205596 -0.410429 -0.851275
3.110653 -0.280584 -0.854257
2.969278 -0.155519 -0.844680
2.878755 -0.041916 -0.850303
63.649018 -5.618908 4.100650
15.836437 -1.416978 -0.720055
13.687075 -0.725686 -0.753583
11.954439 -0.200519 -0.771701
10.567340 -1.340394 -0.772703
9.596813 -0.863241 -0.791341
8.858186 -0.474776 -0.812155
8.044549 -0.137745 -0.815978
7.404452 -0.944325 -0.816960
7.041368 -0.637465 -0.840939
6.533621 -0.352129 -0.841557
6.087957 -0.106156 -0.843278
5.612563 -0.718684 -0.830413
5.308274 -0.483648 -0.833267
5.048317 -0.274730 -0.839428
4.713593 -0.082685 -0.831007
4.501192 -0.579568 -0.837611
4.298222 -0.394344 -0.838686
4.113658 -0.226602 -0.841722
3.910300 -0.068389 -0.839566
3.772606 -0.490175 -0.849459
3.617207 -0.334601 -0.846614
3.464395 -0.191201 -0.844659
3.347984 -0.059606 -0.851161
3.188981 -0.418250 -0.847199
3.128025 -0.291828 -0.859270
2.962063 -0.164255 -0.842768
2.878613 -0.050747 -0.850303
15.823063 -1.464728 -0.719648
13.691762 -0.768065 -0.753968
11.970730 -0.237531 -0.772796
10.558232 -1.372165 -0.772341
9.593127 -0.892587 -0.791259
8.868619 -0.502626 -0.813249
8.050057 -0.162545 -0.816584
7.402505 -0.967166 -0.817069
7.046300 -0.659713 -0.841765
6.531519 -0.372116 -0.841430
6.109390 -0.125280 -0.846296
5.613275 -0.736286 -0.830848
5.316602 -0.500858 -0.834812
5.044496 -0.290047 -0.838937
4.719225 -0.097267 -0.832049
4.502318 -0.593761 -0.838156
4.303832 -0.408177 -0.840021
4.054257 -0.235808 -0.829712
3.910073 -0.080385 -0.839566
3.770116 -0.501618 -0.849241
3.622950 -0.346346 -0.848203
3.472522 -0.202338 -0.846788
3.359413 -0.070120 -0.854117
3.211643 -0.431249 -0.853567
3.117514 -0.300498 -0.856632
2.974990 -0.174129 -0.846593
2.841049 -0.058805 -0.839256
15.914956 -1.522493 -0.724036
13.673394 -0.809124 -0.753089
11.970942 -0.274278 -0.772860
10.553973 -1.404551 -0.772341
9.572486 -0.920298 -0.789785
8.874987 -0.530307 -0.813978
8.070408 -0.187728 -0.818703
7.395562 -0.989345 -0.816634
7.024475 -0.679416 -0.839403
6.537277 -0.392569 -0.842322
6.117890 -0.144233 -0.847530
5.614912 -0.754030 -0.831429
5.317007 -0.517358 -0.835121
5.053430 -0.306118 -0.840575
4.723827 -0.111862 -0.832917
4.492679 -0.606518 -0.836704
4.299629 -0.421092 -0.839449
4.103388 -0.251300 -0.839920
3.916649 -0.092542 -0.841036
3.759856 -0.511997 -0.847280
3.615086 -0.356790 -0.846614
3.468976 -0.212812 -0.846078
3.337866 -0.079916 -0.848697
3.190186 -0.438336 -0.848218
3.105059 -0.308915 -0.853466
2.958119 -0.182249 -0.841948
2.840855 -0.067521 -0.839256
58.047411 -5.663279 3.742960
61.892460 -8.347634 2.321696
15.827696 -1.563163 -0.720281
13.712703 -0.853675 -0.755395
11.985008 -0.311392 -0.773826
10.542697 -1.435981 -0.771835
9.594412 -0.952122 -0.791832
8.874312 -0.557596 -0.814069
8.048908 -0.211937 -0.816584
7.398401 -1.012838 -0.817287
7.031250 -0.701851 -0.840466
6.595433 -0.416372 -0.849976
6.122369 -0.163133 -0.848216
5.613553 -0.771388 -0.831574
5.299666 -0.532089 -0.832649
5.024901 -0.319866 -0.835989
4.725431 -0.126407 -0.833264
4.501512 -0.621779 -0.838700
4.290503 -0.433492 -0.837923
4.103576 -0.263950 -0.840121
3.915370 -0.104532 -0.840826
3.772767 -0.525549 -0.850549
3.619788 -0.368471 -0.847976
3.456671 -0.222704 -0.843240
3.341481 -0.090261 -0.849683
3.214682 -0.451755 -0.855095
3.086825 -0.316668 -0.848717
2.968106 -0.192007 -0.844954
2.921166 -0.078397 -0.863049
61.808153 -8.529418 2.319504
15.892395 -1.618801 -0.723448
13.710019 -0.895741 -0.755395
11.992974 -0.348421 -0.774406
10.519473 -1.465704 -0.770460
9.564676 -0.978813 -0.789622
8.874547 -0.584950 -0.814252
8.054187 -0.236805 -0.817189
7.400182 -1.036221 -0.817831
7.057709 -0.726367 -0.843891
6.575322 -0.435360 -0.847553
6.117879 -0.181798 -0.847668
5.610180 -0.788469 -0.831429
5.297026 -0.548244 -0.832495
4.994366 -0.333310 -0.831075
4.744708 -0.141490 -0.836736
4.479135 -0.632698 -0.834889
4.299893 -0.447771 -0.840021
4.136961 -0.278845 -0.847127
3.916985 -0.116602 -0.841246
3.763407 -0.536021 -0.848805
3.571179 -0.374596 -0.836854
3.470513 -0.234289 -0.846788
3.352813 -0.100862 -0.852639
3.209452 -0.461065 -0.854076
3.131882 -0.331003 -0.861381
2.960784 -0.200657 -0.843041
2.880650 -0.086155 -0.851153
61.960797 -8.744279 2.326228
15.875430 -1.666299 -0.722905
13.714180 -0.938276 -0.755779
11.938986 -0.383515 -0.770992
10.552448 -1.503316 -0.773209
9.559646 -1.007943 -0.789458
8.882646 -0.612859 -0.815163
8.064360 -0.261869 -0.818299
7.405824 -1.060187 -0.818810
7.052485 -0.747702 -0.843537
6.580881 -0.456011 -0.848446
6.110363 -0.200340 -0.846707
5.604797 -0.805255 -0.830993
5.309073 -0.565959 -0.834657
4.984463 -0.348012 -0.829601
4.746220 -0.156111 -0.837083
4.496639 -0.649247 -0.838519
4.310212 -0.462217 -0.842310
4.137063 -0.291605 -0.847327
3.904883 -0.128233 -0.838727
3.753053 -0.546299 -0.846844
3.575823 -0.386178 -0.838216
3.476562 -0.245414 -0.848444
3.342801 -0.110826 -0.850176
3.203238 -0.470207 -0.852803
3.122222 -0.339671 -0.859006
2.931369 -0.207700 -0.834843
2.917754 -0.096225 -0.862199
58.361149 -8.418970 2.192044
15.882162 -1.716284 -0.723448
13.700281 -0.979562 -0.755176
11.958697 -0.420879 -0.772345
10.550747 -1.536114 -0.773426
9.560472 -1.037697 -0.789785
8.896616 -0.641253 -0.816622
8.085393 -0.287386 -0.820519
7.404504 -1.083191 -0.819027
7.066940 -0.771167 -0.845545
6.565601 -0.475196 -0.846660
6.108730 -0.219049 -0.846570
5.594468 -0.821296 -0.829832
5.311240 -0.582675 -0.835275
4.997147 -0.364307 -0.831894
4.746703 -0.170707 -0.837256
4.483925 -0.661461 -0.836522
4.302919 -0.474793 -0.841165
4.123447 -0.303361 -0.844725
3.932807 -0.141230 -0.844814
3.748464 -0.557380 -0.846190
3.587205 -0.398544 -0.841167
3.509708 -0.258578 -0.856722
3.345351 -0.121187 -0.850915
3.200824 -0.479889 -0.852548
3.114455 -0.348498 -0.857159
2.952782 -0.218324 -0.841128
2.891568 -0.104243 -0.854552
15.818243 -1.758490 -0.720779
13.712148 -1.022704 -0.755999
11.930425 -0.456535 -0.770606
10.538092 -1.567302 -0.772847
9.557244 -1.067024 -0.789785
8.899572 -0.668918 -0.817078
8.068567 -0.311576 -0.818905
7.411960 -1.107518 -0.820224
7.055659 -0.791848 -0.844482
6.567080 -0.495561 -0.847042
6.108029 -0.237790 -0.846570
5.589965 -0.838163 -0.829541
5.298628 -0.597749 -0.833576
5.022564 -0.381654 -0.836316
4.748125 -0.185346 -0.837604
4.478957 -0.674775 -0.835978
4.310221 -0.488987 -0.842882
4.123473 -0.316085 -0.844925
3.929424 -0.153181 -0.844184
3.745771 -0.568731 -0.845972
3.582095 -0.409106 -0.840259
3.476928 -0.266890 -0.848917
3.345932 -0.131488 -0.851161
3.196470 -0.489268 -0.851784
3.094206 -0.355847 -0.851883
2.987585 -0.230115 -0.851239
2.914234 -0.114013 -0.861349
36.178163 -5.445742 1.360081
15.789946 -1.804403 -0.719738
13.685053 -1.062911 -0.754681
11.929965 -0.493176 -0.770670
10.550984 -1.602321 -0.774150
9.555905 -1.096567 -0.789949
8.900456 -0.696451 -0.817352
8.059621 -0.335997 -0.818097
7.377082 -1.125455 -0.816743
7.032481 -0.811101 -0.842002
6.557618 -0.515084 -0.846022
6.122116 -0.257151 -0.848628
5.587367 -0.855309 -0.829541
5.302658 -0.614684 -0.834503
5.018419 -0.396828 -0.835825
4.765245 -0.200658 -0.840728
4.475894 -0.688364 -0.835796
4.295050 -0.500618 -0.840212
4.132251 -0.329513 -0.846926
3.943588 -0.165852 -0.847332
3.764262 -0.583359 -0.850549
3.581790 -0.420207 -0.840486
3.467376 -0.276860 -0.846788
3.345513 -0.141752 -0.851161
3.201641 -0.500117 -0.853567
3.095973 -0.365677 -0.852674
2.939881 -0.235516 -0.837849
2.896623 -0.122226 -0.856251
63.886721 -5.078484 3.504552
15.872639 -1.863202 -0.723765
13.695662 -1.106017 -0.755450
11.962292 -0.531280 -0.772860
10.518421 -1.630406 -0.772124
9.544578 -1.124946 -0.789294
8.894307 -0.723431 -0.816987
8.104272 -0.362769 -0.822739
7.350021 -1.144412 -0.814132
6.933321 -0.821226 -0.830427
6.546122 -0.534394 -0.844746
6.128225 -0.276245 -0.849588
5.591560 -0.873515 -0.830558
5.307614 -0.631767 -0.835584
5.025044 -0.412869 -0.837135
4.765591 -0.215321 -0.840902
4.470846 -0.701635 -0.835252
4.279848 -0.512159 -0.837541
4.112668 -0.340652 -0.843123
3.915712 -0.176716 -0.841455
3.730643 -0.589875 -0.843357
3.622061 -0.436201 -0.850246
3.510084 -0.291110 -0.857432
3.359585 -0.152675 -0.854856
3.202957 -0.510393 -0.854331
3.091964 -0.374826 -0.851883
2.977489 -0.247724 -0.848780
2.887612 -0.130722 -0.853702
15.893626 -1.915117 -0.724986
13.729019 -1.151116 -0.757481
11.958612 -0.567883 -0.772731
10.515340 -1.662979 -0.772269
9.558891 -1.156377 -0.790768
8.888077 -0.750380 -0.816622
8.083245 -0.386680 -0.820721
7.348438 -1.167268 -0.814349
6.926826 -0.842014 -0.829954
6.529627 -0.553218 -0.842833
6.129327 -0.295140 -0.849862
5.584945 -0.890043 -0.829977
5.273288 -0.644095 -0.830487
4.997214 -0.426021 -0.832713
4.769826 -0.230178 -0.841770
4.480325 -0.717213 -0.837430
4.286051 -0.526244 -0.839067
4.126247 -0.354526 -0.846126
3.877065 -0.186892 -0.833270
3.697020 -0.596190 -0.836166
3.603308 -0.445162 -0.846160
3.513047 -0.302211 -0.858378
3.357165 -0.162888 -0.854364
3.185150 -0.517581 -0.850001
3.121430 -0.388119 -0.860325
2.964256 -0.255783 -0.845227
2.887197 -0.139580 -0.853702
15.891641 -1.964359 -0.725167
13.666733 -1.188128 -0.754242
11.950834 -0.604266 -0.772345
10.517081 -1.696344 -0.772775
9.567167 -1.187171 -0.791750
8.868868 -0.776169 -0.815072
8.100899 -0.412438 -0.822638
7.336972 -1.188536 -0.813479
6.933078 -0.864367 -0.831017
6.454785 -0.566828 -0.833393
6.131361 -0.314095 -0.850274
5.593908 -0.909078 -0.831719
5.287952 -0.662358 -0.833113
4.984092 -0.440309 -0.830747
4.774999 -0.245113 -0.842812
4.480045 -0.731272 -0.837793
4.288312 -0.539882 -0.839830
4.098790 -0.364838 -0.840721
3.924319 -0.201240 -0.843554
3.741399 -0.615129 -0.846626
3.620283 -0.458540 -0.850473
3.448229 -0.307295 -0.842767
3.362457 -0.173486 -0.855842
3.176868 -0.526244 -0.848218
3.094390 -0.394400 -0.853202
3.004657 -0.268558 -0.856978
2.889629 -0.148585 -0.854552
15.905361 -2.015616 -0.726072
13.576505 -1.222263 -0.749466
11.952910 -0.641142 -0.772603
10.529543 -1.731515 -0.774077
9.567435 -1.217020 -0.792077
8.863470 -0.803105 -0.814799
8.099596 -0.437289 -0.822638
7.342118 -1.212497 -0.814458
6.908724 -0.882864 -0.828419
6.451040 -0.586449 -0.833138
6.088827 -0.330648 -0.844512
5.574499 -0.923486 -0.829251
5.289815 -0.679081 -0.833730
4.988612 -0.456136 -0.831730
4.774224 -0.259761 -0.842812
4.467110 -0.743238 -0.835796
4.299292 -0.554668 -0.842310
4.087895 -0.376513 -0.838719
3.932470 -0.213756 -0.845443
3.743344 -0.627250 -0.847498
3.564774 -0.462625 -0.837762
3.431790 -0.316445 -0.838982
3.340618 -0.182637 -0.850422
3.175239 -0.535988 -0.848218
3.107512 -0.405765 -0.857159
2.975083 -0.275118 -0.848780
2.891074 -0.157554 -0.855118
15.894149 -2.063761 -0.725846
13.632343 -1.269464 -0.752760
11.954871 -0.678036 -0.772860
10.533033 -1.765295 -0.774729
9.546855 -1.244177 -0.790686
8.865922 -0.830759 -0.815255
8.102190 -0.462363 -0.823041
7.323660 -1.232542 -0.812826
6.925675 -0.906634 -0.830781
6.440323 -0.605402 -0.831990
6.064049 -0.347965 -0.841220
5.608712 -0.946843 -0.834769
5.288687 -0.695435 -0.833885
4.992100 -0.471903 -0.832549
4.788153 -0.275255 -0.845416
4.462869 -0.756611 -0.835433
4.308275 -0.569270 -0.844408
4.096474 -0.389981 -0.840721
3.928867 -0.225651 -0.844814
3.737554 -0.638075 -0.846626
3.587473 -0.476767 -0.843436
3.435639 -0.327433 -0.840165
3.338107 -0.192774 -0.849929
3.183110 -0.547366 -0.850765
3.110077 -0.415809 -0.858215
3.015401 -0.288179 -0.860530
2.917386 -0.167966 -0.863049
61.986650 -8.167198 4.012460
15.927352 -2.117780 -0.727655
13.625402 -1.310994 -0.752595
11.941777 -0.714054 -0.772152
10.545265 -1.800623 -0.776031
9.535090 -1.272406 -0.790031
8.856392 -0.857283 -0.814616
8.106691 -0.487577 -0.823647
7.293390 -1.250469 -0.809888
6.913019 -0.926558 -0.829600
6.417705 -0.623145 -0.829311
6.034279 -0.364834 -0.837241
5.582379 -0.960021 -0.831284
5.283590 -0.711262 -0.833422
4.972956 -0.485491 -0.829601
4.766643 -0.288693 -0.841770
4.477970 -0.773311 -0.838700
4.314291 -0.583538 -0.845934
4.089408 -0.401972 -0.839520
3.932060 -0.237940 -0.845653
3.738463 -0.650040 -0.847280
3.586959 -0.487903 -0.843663
3.433651 -0.337877 -0.839928
3.326859 -0.202367 -0.847219
3.204276 -0.561132 -0.856878
3.092540 -0.423125 -0.853730
3.001100 -0.296106 -0.856704
2.913985 -0.176742 -0.862199
60.203866 -8.120289 3.898653
15.923750 -2.167039 -0.727791
13.602438 -1.350915 -0.751552
11.954470 -0.751627 -0.773118
10.547552 -1.834334 -0.776610
9.529166 -1.301384 -0.789867
8.863630 -0.885440 -0.815528
8.113100 -0.512948 -0.824454
7.283644 -1.271813 -0.809236
6.933755 -0.951001 -0.832435
6.434514 -0.644710 -0.831734
6.013361 -0.382089 -0.834498
5.596949 -0.980215 -0.833897
5.270618 -0.725986 -0.831723
4.986165 -0.502229 -0.832058
4.776546 -0.304004 -0.843680
4.476545 -0.787216 -0.838882
4.305673 -0.595829 -0.844599
4.087181 -0.414417 -0.839320
3.925457 -0.249630 -0.844394
3.742218 -0.662527 -0.848588
3.571940 -0.497026 -0.840486
3.440332 -0.349195 -0.841821
3.328157 -0.212696 -0.847712
3.200635 -0.570621 -0.856369
3.086452 -0.431943 -0.852411
3.013576 -0.306676 -0.860530
2.887588 -0.184034 -0.854552
37.655896 -5.216793 1.048590
15.881408 -2.210923 -0.726162
13.601209 -1.392946 -0.751717
11.947129 -0.787971 -0.772796
10.542857 -1.866859 -0.776682
9.528090 -1.331026 -0.790113
8.867805 -0.913344 -0.816166
8.132336 -0.539218 -0.826573
7.279708 -1.294153 -0.809236
6.904253 -0.968544 -0.829246
6.376271 -0.658639 -0.824463
6.016114 -0.400799 -0.835046
5.573461 -0.993735 -0.830848
5.273257 -0.742841 -0.832495
4.978714 -0.516913 -0.831075
4.742181 -0.316428 -0.837777
4.477980 -0.801639 -0.839608
4.290218 -0.607110 -0.841928
4.091737 -0.427566 -0.840521
3.935404 -0.262387 -0.846703
3.738246 -0.673659 -0.848152
3.567506 -0.507571 -0.839805
3.455672 -0.361466 -0.845842
3.334258 -0.223359 -0.849436
3.188404 -0.578538 -0.853567
3.079383 -0.440590 -0.850828
2.990617 -0.313612 -0.854245
2.886053 -0.192828 -0.854268
37.646641 -5.333277 1.048783
16.002131 -2.277797 -0.731998
13.616730 -1.436763 -0.752815
11.970540 -0.826408 -0.774471
10.534135 -1.898664 -0.776465
9.502256 -1.357152 -0.788312
8.854069 -0.939390 -0.815163
8.113770 -0.562994 -0.824858
7.261031 -1.313826 -0.807604
6.885522 -0.987466 -0.827356
6.382110 -0.679037 -0.825484
6.017820 -0.419461 -0.835458
5.565519 -1.009946 -0.830122
5.267042 -0.758453 -0.831877
5.000646 -0.534702 -0.835006
4.733328 -0.330426 -0.836388
4.475500 -0.815374 -0.839608
4.281534 -0.619286 -0.840593
4.085535 -0.439593 -0.839520
3.949211 -0.275480 -0.849851
3.752481 -0.688117 -0.851856
3.555331 -0.516972 -0.837308
3.443920 -0.370922 -0.843240
3.298751 -0.231148 -0.840568
3.176153 -0.586386 -0.850765
3.087561 -0.451431 -0.853466
3.000161 -0.323922 -0.857251
2.895015 -0.202350 -0.857101
16.009897 -2.329037 -0.732677
13.611266 -1.478424 -0.752760
11.954014 -0.862124 -0.773569
10.516489 -1.928815 -0.775597
9.493116 -1.385578 -0.787903
8.902622 -0.972170 -0.819904
8.122921 -0.588676 -0.825968
7.272608 -1.338976 -0.809344
6.910953 -1.012761 -0.830781
6.400701 -0.700881 -0.828163
6.019469 -0.438137 -0.835870
5.553637 -1.025399 -0.828815
5.270555 -0.775471 -0.832804
5.004866 -0.550688 -0.835989
4.734257 -0.345089 -0.836736
4.478779 -0.830176 -0.840697
4.301950 -0.635719 -0.844980
4.086115 -0.452341 -0.839920
3.958098 -0.288305 -0.851950
3.747475 -0.699089 -0.851203
3.553728 -0.527877 -0.837308
3.467875 -0.384268 -0.849390
3.330891 -0.243672 -0.848944
3.187645 -0.598627 -0.854331
3.067081 -0.458052 -0.848189
2.963779 -0.329196 -0.847140
2.889597 -0.210882 -0.855685
56.428515 -10.452104 2.133422
36.211008 -5.356742 1.009685
16.002675 -2.378144 -0.732677
13.612620 -1.520841 -0.753089
11.971214 -0.900291 -0.774857
10.442869 -1.948447 -0.770605
9.469106 -1.411757 -0.786266
8.836263 -0.992366 -0.814069
8.170679 -0.617341 -0.831013
7.273351 -1.362197 -0.809888
6.858711 -1.026609 -0.824876
6.421190 -0.723068 -0.831097
6.015134 -0.456378 -0.835458
5.552410 -1.042798 -0.829106
5.266197 -0.791344 -0.832495
5.000212 -0.565708 -0.835497
4.740050 -0.360135 -0.837951
4.480076 -0.844642 -0.841423
4.293184 -0.647889 -0.843645
4.087629 -0.465207 -0.840521
3.961095 -0.300743 -0.852790
3.704081 -0.702760 -0.841832
3.529945 -0.535418 -0.832088
3.464749 -0.394686 -0.848917
3.356220 -0.255879 -0.855595
3.176295 -0.606589 -0.851784
3.064708 -0.467314 -0.847926
2.971356 -0.339269 -0.849599
2.877462 -0.218873 -0.852286
56.355918 -10.617589 2.131899
36.189458 -5.467064 1.009547
16.017034 -2.430525 -0.733672
13.599955 -1.561685 -0.752650
11.963422 -0.936624 -0.774535
10.538752 -1.999814 -0.778129
9.474583 -1.442301 -0.787084
8.777778 -1.013076 -0.808964
8.160812 -0.641782 -0.830205
7.270114 -1.384691 -0.809997
6.877124 -1.050947 -0.827474
6.426823 -0.743676 -0.832117
5.997905 -0.473583 -0.833263
5.549185 -1.059828 -0.829106
5.262768 -0.807347 -0.832340
4.990614 -0.580134 -0.834187
4.746777 -0.375296 -0.839340
4.485191 -0.859864 -0.842875
4.291176 -0.661057 -0.843645
4.110510 -0.480590 -0.845525
3.949432 -0.312047 -0.850481
3.707657 -0.715230 -0.843139
3.589882 -0.555781 -0.846614
3.458696 -0.404749 -0.847734
3.371843 -0.267478 -0.859783
3.164926 -0.614488 -0.849237
3.083275 -0.479829 -0.853466
2.977945 -0.349280 -0.851786
2.881557 -0.228079 -0.853702
56.341726 -10.794010 2.132605
36.176470 -5.578676 1.009657
16.019373 -2.481183 -0.734125
13.644680 -1.609250 -0.755395
11.957507 -0.973080 -0.774342
10.456180 -2.017399 -0.772486
9.458296 -1.469525 -0.786102
8.767706 -1.039181 -0.808326
8.184587 -0.668923 -0.832829
7.259976 -1.405855 -0.809344
6.884660 -1.073724 -0.828773
6.415647 -0.762337 -0.830969
5.983590 -0.490929 -0.831480
5.550763 -1.077790 -0.829832
5.265146 -0.824253 -0.833113
4.979015 -0.594273 -0.832549
4.743640 -0.389696 -0.838992
4.480601 -0.873244 -0.842512
4.301735 -0.676201 -0.846125
4.113881 -0.493782 -0.846526
3.918248 -0.321683 -0.843974
3.701615 -0.725851 -0.842268
3.553529 -0.561322 -0.838443
3.455509 -0.415126 -0.847261
3.368109 -0.277582 -0.859044
3.169667 -0.625506 -0.851020
3.063688 -0.486412 -0.848453
2.974949 -0.358184 -0.851239
2.875109 -0.236446 -0.852002
16.030434 -2.533280 -0.734984
13.639679 -1.651103 -0.755395
11.941539 -1.008669 -0.773504
10.510622 -2.061370 -0.776971
9.471461 -1.501345 -0.787575
8.761511 -1.065714 -0.808052
8.181504 -0.693946 -0.832728
7.245876 -1.426202 -0.808256
6.873488 -1.093592 -0.827828
6.401464 -0.780575 -0.829438
5.984030 -0.509452 -0.831754
5.542577 -1.093857 -0.829106
5.286984 -0.844297 -0.836974
4.980106 -0.609906 -0.833040
4.748310 -0.404749 -0.840034
4.466325 -0.884693 -0.840334
4.254085 -0.682091 -0.837160
4.107484 -0.505802 -0.845525
3.950366 -0.336524 -0.851110
3.694585 -0.736250 -0.841178
3.595058 -0.579192 -0.848657
3.449398 -0.425131 -0.846078
3.379795 -0.288987 -0.862247
3.163941 -0.634467 -0.850001
3.068847 -0.496888 -0.850300
2.958561 -0.365423 -0.846867
2.864814 -0.244451 -0.849170
65.816811 -8.088212 3.626149
30.218370 -5.981720 1.145171
16.043297 -2.585787 -0.735934
13.721747 -1.703768 -0.760226
11.947336 -1.046084 -0.774084
10.515009 -2.095751 -0.777767
9.465826 -1.530237 -0.787494
8.761165 -1.092959 -0.808326
8.169426 -0.718172 -0.831719
7.238542 -1.447840 -0.807930
6.840695 -1.109904 -0.824285
6.398055 -0.800088 -0.829311
5.971585 -0.526851 -0.830245
5.537255 -1.110467 -0.828815
5.300946 -0.863213 -0.839600
4.982127 -0.625673 -0.833695
4.750969 -0.419662 -0.840728
4.449129 -0.895481 -0.837611
4.265535 -0.697357 -0.839830
4.101053 -0.517788 -0.844524
3.905487 -0.344773 -0.841665
3.729614 -0.755134 -0.849677
3.608640 -0.592744 -0.852288
3.468320 -0.438270 -0.851045
3.370204 -0.298585 -0.860030
3.178088 -0.647452 -0.854331
3.066356 -0.506144 -0.850036
2.956472 -0.374377 -0.846593
2.870738 -0.253830 -0.851153
30.122481 -6.058833 1.142236
16.047117 -2.636939 -0.736477
13.701598 -1.743967 -0.759403
11.953015 -1.083544 -0.774664
10.508529 -2.128001 -0.777767
9.482721 -1.562836 -0.789294
8.742953 -1.117938 -0.806958
8.170157 -0.743502 -0.832022
7.236988 -1.470635 -0.808256
6.830400 -1.129751 -0.823458
6.388684 -0.818831 -0.828418
5.968954 -0.545079 -0.830108
5.528975 -1.126462 -0.828089
5.290476 -0.878178 -0.838364
4.988011 -0.641963 -0.835006
4.749660 -0.434235 -0.840728
4.449251 -0.909717 -0.838156
4.284678 -0.713990 -0.844027
4.124708 -0.533636 -0.849729
3.892727 -0.355685 -0.839147
3.733972 -0.767949 -0.851203
3.577028 -0.598828 -0.845252
3.474668 -0.449907 -0.852938
3.367342 -0.308747 -0.859537
3.173245 -0.656611 -0.853567
3.054326 -0.513789 -0.847134
2.953401 -0.383198 -0.846047
2.878541 -0.263423 -0.853702
63.841817 -8.243455 3.520058
64.405892 -5.969652 2.923616
16.047820 -2.687644 -0.736884
13.661529 -1.781476 -0.757481
11.931750 -1.118533 -0.773504
10.510744 -2.162039 -0.778418
9.474933 -1.591426 -0.789049
8.705911 -1.140359 -0.803858
8.164866 -0.768285 -0.831719
7.243151 -1.495041 -0.809453
6.816131 -1.148886 -0.822159
6.375324 -0.837007 -0.827015
5.973171 -0.563947 -0.830931
5.521617 -1.142618 -0.827508
5.287757 -0.894405 -0.838364
4.984062 -0.657005 -0.834678
4.754188 -0.449361 -0.841770
4.450291 -0.924163 -0.838882
4.279564 -0.726639 -0.843454
4.106540 -0.544100 -0.846326
3.898432 -0.368270 -0.840616
3.737330 -0.780599 -0.852510
3.575174 -0.609799 -0.845252
3.468455 -0.459926 -0.851755
3.326820 -0.315327 -0.849436
3.162699 -0.664554 -0.851275
3.048932 -0.522505 -0.846079
2.966515 -0.394158 -0.850146
2.898725 -0.274240 -0.859933
56.133058 -9.509596 3.653746
41.552162 -7.061805 1.162576
16.041469 -2.737201 -0.736975
13.608493 -1.817037 -0.754846
11.942168 -1.156481 -0.774406
10.498204 -2.193052 -0.777984
9.515195 -1.628219 -0.792814
8.712242 -1.168386 -0.804770
8.141675 -0.791309 -0.829600
7.237557 -1.517052 -0.809344
6.796915 -1.167103 -0.820269
6.366828 -0.855769 -0.826249
5.972398 -0.582366 -0.831068
5.514213 -1.158739 -0.826928
5.288882 -0.911294 -0.838982
4.981045 -0.672161 -0.834514
4.753767 -0.464040 -0.841944
4.455132 -0.939435 -0.840334
4.302463 -0.744114 -0.848414
4.098055 -0.555775 -0.844925
3.894364 -0.379944 -0.839986
3.705321 -0.785784 -0.845755
3.593437 -0.624265 -0.850019
3.472805 -0.471349 -0.853174
3.312333 -0.324210 -0.845987
3.165374 -0.675263 -0.852548
3.053966 -0.533018 -0.847926
2.958620 -0.402350 -0.848233
2.903596 -0.283691 -0.861633
56.068217 -9.675656 3.651440
61.000679 -8.257440 3.366136
16.124528 -2.802310 -0.741182
13.579111 -1.855535 -0.753529
11.950480 -1.194304 -0.775179
10.517769 -2.230837 -0.779938
